14.343000 -13.355000 0.413000 59.000000 62.000000 45.000000
14.433000 -13.349000 0.407000 60.000000 66.000000 54.000000
14.394000 -13.425000 0.412000 53.000000 55.000000 44.000000
14.409000 -13.372000 0.409000 72.000000 75.000000 64.000000
14.386000 -13.343000 0.410000 54.000000 57.000000 46.000000
14.370000 -13.334000 0.411000 66.000000 70.000000 56.000000
14.351000 -13.335000 0.412000 64.000000 67.000000 56.000000
14.359000 -13.502000 0.418000 93.000000 99.000000 85.000000
14.607000 -13.373000 0.396000 37.000000 39.000000 38.000000
14.427000 -13.401000 0.409000 64.000000 65.000000 57.000000
14.608000 -13.361000 0.395000 38.000000 40.000000 37.000000
14.373000 -13.341000 0.411000 61.000000 65.000000 51.000000
14.424000 -13.450000 0.411000 88.000000 91.000000 82.000000
14.428000 -13.351000 0.407000 73.000000 79.000000 67.000000
14.359000 -13.359000 0.412000 65.000000 67.000000 53.000000
14.608000 -13.374000 0.396000 37.000000 39.000000 38.000000
14.473000 -13.430000 0.407000 64.000000 67.000000 58.000000
14.477000 -13.412000 0.406000 45.000000 46.000000 41.000000
14.479000 -13.420000 0.406000 53.000000 56.000000 49.000000
14.391000 -13.459000 0.414000 65.000000 68.000000 57.000000
14.577000 -13.373000 0.398000 38.000000 38.000000 36.000000
14.479000 -13.355000 0.404000 75.000000 82.000000 74.000000
14.454000 -13.350000 0.406000 95.000000 100.000000 93.000000
14.515000 -13.395000 0.403000 37.000000 37.000000 37.000000
14.391000 -13.338000 0.409000 53.000000 56.000000 45.000000
14.335000 -13.394000 0.415000 53.000000 55.000000 44.000000
14.484000 -13.423000 0.406000 60.000000 63.000000 54.000000
14.398000 -13.418000 0.412000 56.000000 58.000000 45.000000
14.500000 -13.389000 0.404000 34.000000 34.000000 34.000000
14.373000 -13.491000 0.416000 93.000000 96.000000 87.000000
14.426000 -13.412000 0.410000 62.000000 64.000000 53.000000
14.382000 -13.368000 0.411000 57.000000 60.000000 51.000000
14.503000 -13.381000 0.403000 47.000000 49.000000 44.000000
14.444000 -13.427000 0.409000 59.000000 60.000000 52.000000
14.580000 -13.367000 0.397000 37.000000 37.000000 35.000000
14.359000 -13.496000 0.417000 96.000000 102.000000 88.000000
14.408000 -13.338000 0.408000 76.000000 79.000000 68.000000
14.492000 -13.437000 0.406000 65.000000 68.000000 59.000000
14.339000 -13.425000 0.416000 57.000000 59.000000 48.000000
14.523000 -13.389000 0.402000 41.000000 41.000000 41.000000
14.415000 -13.404000 0.410000 64.000000 66.000000 55.000000
14.476000 -13.369000 0.405000 121.000000 127.000000 117.000000
14.411000 -13.450000 0.412000 68.000000 71.000000 62.000000
14.374000 -13.333000 0.410000 67.000000 70.000000 59.000000
14.407000 -13.594000 0.414000 87.000000 95.000000 80.000000
14.406000 -13.601000 0.409000 89.000000 97.000000 82.000000
14.420000 -13.611000 0.412000 85.000000 93.000000 80.000000
14.438000 -13.652000 0.399000 204.000000 212.000000 197.000000
14.387000 -13.576000 0.412000 95.000000 98.000000 87.000000
14.403000 -13.603000 0.406000 113.000000 121.000000 106.000000
14.421000 -13.640000 0.394000 136.000000 146.000000 138.000000
14.398000 -13.582000 0.415000 86.000000 89.000000 78.000000
14.390000 -13.584000 0.409000 121.000000 127.000000 115.000000
14.370000 -13.555000 0.413000 89.000000 95.000000 83.000000
14.374000 -13.557000 0.415000 92.000000 95.000000 84.000000
14.445000 -13.650000 0.405000 147.000000 156.000000 139.000000
14.374000 -13.563000 0.411000 101.000000 107.000000 95.000000
14.420000 -13.629000 0.400000 194.000000 202.000000 189.000000
14.443000 -13.645000 0.406000 122.000000 129.000000 113.000000
14.434000 -13.660000 0.390000 72.000000 78.000000 68.000000
14.420000 -13.610000 0.413000 87.000000 95.000000 82.000000
14.449000 -13.673000 0.393000 111.000000 117.000000 105.000000
14.412000 -13.629000 0.395000 158.000000 166.000000 155.000000
14.440000 -13.646000 0.404000 185.000000 193.000000 178.000000
14.430000 -13.648000 0.395000 199.000000 207.000000 196.000000
14.430000 -13.653000 0.392000 86.000000 94.000000 83.000000
14.445000 -13.667000 0.393000 90.000000 96.000000 84.000000
14.374000 -13.560000 0.413000 93.000000 99.000000 87.000000
14.406000 -13.613000 0.401000 182.000000 190.000000 175.000000
14.421000 -13.648000 0.390000 71.000000 81.000000 72.000000
14.375000 -13.563000 0.412000 101.000000 107.000000 95.000000
14.442000 -13.635000 0.412000 92.000000 96.000000 81.000000
14.423000 -13.616000 0.411000 86.000000 94.000000 81.000000
14.441000 -13.662000 0.395000 126.000000 132.000000 120.000000
14.442000 -13.639000 0.410000 96.000000 103.000000 87.000000
14.412000 -13.613000 0.405000 115.000000 123.000000 110.000000
14.443000 -13.658000 0.398000 221.000000 227.000000 213.000000
14.442000 -13.687000 0.379000 37.000000 38.000000 33.000000
14.428000 -13.659000 0.388000 72.000000 78.000000 68.000000
14.400000 -13.600000 0.405000 122.000000 130.000000 115.000000
14.418000 -13.625000 0.402000 185.000000 193.000000 180.000000
14.423000 -13.620000 0.408000 92.000000 100.000000 87.000000
14.428000 -13.655000 0.390000 67.000000 75.000000 64.000000
14.410000 -13.608000 0.407000 100.000000 108.000000 93.000000
14.438000 -13.631000 0.412000 86.000000 90.000000 75.000000
14.439000 -13.647000 0.402000 185.000000 193.000000 178.000000
14.431000 -13.650000 0.395000 193.000000 201.000000 190.000000
14.387000 -13.334000 0.410000 66.000000 69.000000 58.000000
14.540000 -13.349000 0.400000 55.000000 56.000000 51.000000
14.422000 -13.282000 0.415000 84.000000 89.000000 82.000000
14.575000 -13.335000 0.401000 51.000000 51.000000 49.000000
14.525000 -13.303000 0.407000 83.000000 86.000000 77.000000
14.595000 -13.353000 0.397000 41.000000 41.000000 39.000000
14.462000 -13.293000 0.412000 91.000000 97.000000 87.000000
14.396000 -13.297000 0.414000 80.000000 85.000000 78.000000
14.553000 -13.300000 0.407000 56.000000 58.000000 53.000000
14.573000 -13.281000 0.408000 50.000000 51.000000 45.000000
14.509000 -13.259000 0.414000 76.000000 77.000000 71.000000
14.502000 -13.263000 0.414000 80.000000 83.000000 76.000000
14.461000 -13.298000 0.411000 90.000000 95.000000 88.000000
14.468000 -13.335000 0.406000 65.000000 68.000000 61.000000
14.388000 -13.306000 0.414000 76.000000 79.000000 72.000000
14.492000 -13.261000 0.415000 84.000000 87.000000 78.000000
14.436000 -13.327000 0.408000 86.000000 89.000000 78.000000
14.550000 -13.266000 0.411000 62.000000 63.000000 55.000000
14.568000 -13.326000 0.402000 50.000000 51.000000 46.000000
14.570000 -13.313000 0.404000 50.000000 51.000000 46.000000
14.605000 -13.318000 0.402000 47.000000 47.000000 47.000000
14.574000 -13.317000 0.403000 50.000000 51.000000 46.000000
14.597000 -13.244000 0.412000 35.000000 39.000000 40.000000
14.343000 -13.309000 0.415000 69.000000 72.000000 65.000000
14.434000 -13.307000 0.411000 80.000000 85.000000 78.000000
14.505000 -13.328000 0.405000 68.000000 67.000000 63.000000
14.565000 -13.300000 0.406000 52.000000 53.000000 48.000000
14.549000 -13.272000 0.411000 65.000000 65.000000 57.000000
14.505000 -13.339000 0.403000 56.000000 57.000000 52.000000
14.434000 -13.304000 0.412000 84.000000 89.000000 82.000000
14.556000 -13.313000 0.405000 58.000000 59.000000 54.000000
14.565000 -13.266000 0.411000 57.000000 57.000000 49.000000
14.510000 -13.304000 0.408000 54.000000 57.000000 48.000000
14.476000 -13.328000 0.406000 36.000000 39.000000 32.000000
14.584000 -13.337000 0.400000 42.000000 42.000000 40.000000
14.541000 -13.312000 0.405000 66.000000 69.000000 62.000000
14.604000 -13.340000 0.398000 44.000000 44.000000 42.000000
14.384000 -13.313000 0.413000 74.000000 77.000000 68.000000
14.414000 -13.300000 0.413000 88.000000 93.000000 86.000000
14.533000 -13.314000 0.405000 73.000000 76.000000 69.000000
14.559000 -13.274000 0.410000 56.000000 56.000000 46.000000
14.528000 -13.326000 0.404000 58.000000 61.000000 54.000000
14.389000 -13.320000 0.411000 74.000000 77.000000 70.000000
14.429000 -13.329000 0.408000 83.000000 86.000000 75.000000
14.529000 -13.307000 0.407000 79.000000 82.000000 73.000000
14.382000 -13.317000 0.412000 74.000000 77.000000 68.000000
14.552000 -13.239000 0.415000 54.000000 54.000000 52.000000
14.352000 -13.325000 0.413000 67.000000 70.000000 59.000000
14.562000 -13.316000 0.404000 54.000000 55.000000 50.000000
14.442000 -13.318000 0.409000 55.000000 58.000000 47.000000
14.531000 -13.314000 0.406000 73.000000 76.000000 69.000000
14.489000 -13.341000 0.404000 41.000000 44.000000 37.000000
14.588000 -13.298000 0.405000 47.000000 47.000000 45.000000
14.514000 -13.293000 0.409000 70.000000 73.000000 66.000000
14.333000 -13.322000 0.414000 70.000000 73.000000 64.000000
14.449000 -13.330000 0.407000 98.000000 101.000000 92.000000
14.454000 -13.317000 0.409000 47.000000 48.000000 42.000000
14.446000 -13.286000 0.414000 92.000000 97.000000 90.000000
14.452000 -13.305000 0.411000 86.000000 89.000000 82.000000
14.597000 -13.264000 0.410000 34.000000 40.000000 38.000000
14.517000 -13.350000 0.401000 45.000000 47.000000 44.000000
14.584000 -13.316000 0.403000 48.000000 48.000000 46.000000
14.401000 -13.326000 0.410000 80.000000 83.000000 72.000000
14.541000 -13.318000 0.405000 69.000000 72.000000 65.000000
14.562000 -13.280000 0.409000 56.000000 57.000000 49.000000
14.402000 -13.332000 0.409000 67.000000 70.000000 59.000000
14.395000 -13.312000 0.412000 71.000000 76.000000 69.000000
14.546000 -13.287000 0.409000 66.000000 67.000000 59.000000
14.540000 -13.334000 0.402000 51.000000 52.000000 47.000000
14.338000 -13.310000 0.415000 69.000000 72.000000 63.000000
14.559000 -13.349000 0.399000 48.000000 50.000000 45.000000
14.485000 -13.294000 0.411000 85.000000 90.000000 83.000000
14.451000 -13.316000 0.409000 54.000000 55.000000 49.000000
14.576000 -13.271000 0.410000 51.000000 50.000000 46.000000
14.318000 -13.323000 0.414000 77.000000 76.000000 71.000000
14.589000 -13.358000 0.397000 40.000000 40.000000 38.000000
14.508000 -13.284000 0.411000 81.000000 84.000000 77.000000
14.406000 -13.332000 0.409000 67.000000 70.000000 59.000000
14.496000 -13.346000 0.403000 44.000000 46.000000 41.000000
14.547000 -13.255000 0.413000 58.000000 61.000000 54.000000
14.612000 -13.352000 0.396000 41.000000 41.000000 39.000000
14.504000 -13.296000 0.409000 68.000000 71.000000 64.000000
14.488000 -13.287000 0.411000 79.000000 86.000000 78.000000
14.476000 -13.268000 0.415000 86.000000 91.000000 84.000000
14.415000 -13.299000 0.413000 87.000000 92.000000 85.000000
14.427000 -13.308000 0.411000 80.000000 85.000000 78.000000
14.604000 -13.270000 0.408000 37.000000 41.000000 40.000000
14.568000 -13.298000 0.406000 52.000000 53.000000 48.000000
14.532000 -13.340000 0.402000 49.000000 50.000000 45.000000
14.532000 -13.316000 0.405000 73.000000 76.000000 69.000000
14.486000 -13.296000 0.410000 86.000000 91.000000 84.000000
14.394000 -13.329000 0.410000 73.000000 76.000000 65.000000
14.543000 -13.332000 0.403000 53.000000 54.000000 49.000000
14.616000 -13.322000 0.400000 43.000000 43.000000 41.000000
14.482000 -13.284000 0.412000 84.000000 90.000000 80.000000
14.489000 -13.299000 0.410000 88.000000 91.000000 84.000000
14.412000 -13.324000 0.410000 77.000000 79.000000 68.000000
14.455000 -13.305000 0.410000 79.000000 82.000000 75.000000
14.387000 -13.311000 0.413000 74.000000 77.000000 70.000000
14.342000 -13.305000 0.416000 78.000000 81.000000 74.000000
14.417000 -13.281000 0.416000 86.000000 91.000000 84.000000
14.515000 -13.321000 0.405000 53.000000 56.000000 47.000000
14.602000 -13.306000 0.403000 47.000000 47.000000 47.000000
14.336000 -13.314000 0.415000 70.000000 73.000000 64.000000
14.514000 -13.310000 0.407000 48.000000 51.000000 42.000000
14.405000 -13.324000 0.410000 79.000000 81.000000 70.000000
14.593000 -13.303000 0.404000 47.000000 47.000000 45.000000
14.582000 -13.300000 0.405000 49.000000 49.000000 47.000000
14.526000 -13.343000 0.402000 50.000000 51.000000 46.000000
14.560000 -13.273000 0.410000 56.000000 56.000000 48.000000
14.546000 -13.342000 0.401000 53.000000 54.000000 49.000000
14.438000 -13.326000 0.408000 86.000000 89.000000 78.000000
14.491000 -13.333000 0.405000 51.000000 54.000000 47.000000
14.587000 -13.283000 0.407000 44.000000 46.000000 45.000000
14.499000 -13.328000 0.405000 68.000000 69.000000 63.000000
14.490000 -13.321000 0.407000 70.000000 71.000000 65.000000
14.592000 -13.285000 0.407000 43.000000 43.000000 41.000000
14.491000 -13.317000 0.407000 78.000000 79.000000 73.000000
14.539000 -13.322000 0.404000 69.000000 72.000000 65.000000
14.538000 -13.333000 0.403000 54.000000 55.000000 50.000000
14.532000 -13.296000 0.408000 93.000000 96.000000 87.000000
14.507000 -13.259000 0.415000 76.000000 77.000000 71.000000
14.453000 -13.323000 0.408000 56.000000 59.000000 50.000000
14.528000 -13.328000 0.404000 58.000000 61.000000 54.000000
14.453000 -13.317000 0.409000 47.000000 48.000000 42.000000
14.406000 -13.288000 0.415000 81.000000 86.000000 79.000000
14.489000 -13.287000 0.411000 79.000000 86.000000 78.000000
14.594000 -13.253000 0.411000 36.000000 42.000000 40.000000
14.526000 -13.273000 0.412000 78.000000 81.000000 74.000000
14.428000 -13.306000 0.412000 80.000000 85.000000 78.000000
14.533000 -13.270000 0.412000 70.000000 73.000000 66.000000
14.475000 -13.311000 0.409000 83.000000 84.000000 78.000000
14.477000 -13.328000 0.406000 42.000000 45.000000 38.000000
14.429000 -13.329000 0.408000 83.000000 86.000000 75.000000
14.551000 -13.282000 0.409000 64.000000 64.000000 56.000000
14.622000 -13.350000 0.396000 41.000000 41.000000 39.000000
14.484000 -13.345000 0.403000 39.000000 42.000000 35.000000
14.341000 -13.310000 0.415000 69.000000 72.000000 65.000000
14.467000 -13.287000 0.412000 91.000000 96.000000 89.000000
14.587000 -13.307000 0.404000 48.000000 48.000000 46.000000
14.399000 -13.290000 0.415000 79.000000 84.000000 77.000000
14.564000 -13.312000 0.404000 54.000000 55.000000 50.000000
14.526000 -13.320000 0.405000 57.000000 60.000000 53.000000
14.468000 -13.334000 0.406000 58.000000 61.000000 54.000000
14.416000 -13.284000 0.415000 84.000000 89.000000 82.000000
14.620000 -13.345000 0.397000 41.000000 41.000000 39.000000
14.558000 -13.298000 0.407000 54.000000 57.000000 50.000000
14.629000 -13.361000 0.394000 39.000000 41.000000 40.000000
14.483000 -13.328000 0.406000 45.000000 48.000000 41.000000
14.559000 -13.293000 0.407000 55.000000 56.000000 50.000000
14.417000 -13.334000 0.408000 81.000000 84.000000 73.000000
14.484000 -13.324000 0.406000 53.000000 54.000000 48.000000
14.452000 -13.289000 0.413000 93.000000 98.000000 91.000000
14.507000 -13.274000 0.412000 86.000000 89.000000 82.000000
14.453000 -13.306000 0.410000 79.000000 82.000000 75.000000
14.422000 -13.280000 0.416000 86.000000 91.000000 84.000000
14.488000 -13.281000 0.412000 84.000000 87.000000 80.000000
14.571000 -13.243000 0.414000 48.000000 50.000000 49.000000
14.501000 -13.285000 0.411000 82.000000 85.000000 78.000000
14.457000 -13.275000 0.415000 88.000000 93.000000 87.000000
14.604000 -13.280000 0.407000 42.000000 43.000000 37.000000
14.586000 -13.288000 0.407000 44.000000 44.000000 42.000000
14.496000 -13.312000 0.407000 71.000000 70.000000 65.000000
14.572000 -13.247000 0.413000 47.000000 47.000000 47.000000
14.565000 -13.287000 0.408000 52.000000 53.000000 47.000000
14.312000 -13.323000 0.415000 79.000000 80.000000 75.000000
14.465000 -13.311000 0.409000 75.000000 76.000000 70.000000
14.580000 -13.333000 0.401000 48.000000 48.000000 46.000000
14.393000 -13.290000 0.415000 78.000000 83.000000 76.000000
14.461000 -13.314000 0.409000 62.000000 63.000000 57.000000
14.522000 -13.315000 0.406000 58.000000 61.000000 52.000000
14.528000 -13.337000 0.403000 52.000000 53.000000 48.000000
14.363000 -13.316000 0.413000 71.000000 74.000000 65.000000
14.393000 -13.290000 0.416000 78.000000 83.000000 76.000000
14.602000 -13.332000 0.400000 48.000000 48.000000 48.000000
14.491000 -13.318000 0.407000 78.000000 79.000000 73.000000
14.534000 -13.286000 0.409000 81.000000 84.000000 77.000000
14.489000 -13.345000 0.403000 41.000000 44.000000 37.000000
14.568000 -13.331000 0.401000 51.000000 52.000000 47.000000
14.561000 -13.273000 0.410000 56.000000 56.000000 48.000000
14.470000 -13.270000 0.415000 87.000000 92.000000 85.000000
14.472000 -13.319000 0.408000 58.000000 59.000000 53.000000
14.520000 -13.267000 0.413000 76.000000 79.000000 72.000000
14.530000 -13.320000 0.405000 68.000000 71.000000 64.000000
14.469000 -13.268000 0.415000 87.000000 92.000000 86.000000
14.531000 -13.264000 0.413000 67.000000 70.000000 63.000000
14.606000 -13.286000 0.406000 45.000000 46.000000 41.000000
14.573000 -13.250000 0.413000 47.000000 47.000000 47.000000
14.586000 -13.306000 0.404000 49.000000 49.000000 47.000000
14.534000 -13.292000 0.409000 91.000000 94.000000 85.000000
14.570000 -13.354000 0.398000 50.000000 50.000000 48.000000
14.512000 -13.330000 0.404000 59.000000 62.000000 55.000000
14.540000 -13.252000 0.414000 62.000000 65.000000 58.000000
14.416000 -13.300000 0.413000 87.000000 92.000000 85.000000
14.436000 -13.325000 0.408000 68.000000 71.000000 60.000000
14.501000 -13.283000 0.411000 82.000000 85.000000 78.000000
14.324000 -13.324000 0.414000 75.000000 74.000000 69.000000
14.585000 -13.330000 0.401000 49.000000 49.000000 47.000000
14.591000 -13.286000 0.407000 43.000000 43.000000 41.000000
14.525000 -13.332000 0.403000 57.000000 58.000000 52.000000
14.443000 -13.333000 0.407000 107.000000 110.000000 101.000000
14.558000 -13.353000 0.399000 46.000000 48.000000 43.000000
14.430000 -13.285000 0.414000 86.000000 91.000000 84.000000
14.589000 -13.267000 0.409000 38.000000 44.000000 42.000000
14.571000 -13.347000 0.399000 44.000000 46.000000 41.000000
14.450000 -13.336000 0.406000 94.000000 97.000000 90.000000
14.578000 -13.251000 0.412000 47.000000 47.000000 45.000000
14.511000 -13.321000 0.405000 55.000000 58.000000 49.000000
14.582000 -13.246000 0.413000 44.000000 45.000000 47.000000
14.621000 -13.339000 0.398000 42.000000 42.000000 40.000000
14.538000 -13.294000 0.408000 75.000000 78.000000 69.000000
14.396000 -13.299000 0.414000 80.000000 85.000000 78.000000
14.619000 -13.347000 0.397000 41.000000 41.000000 39.000000
14.447000 -13.338000 0.406000 99.000000 102.000000 95.000000
14.606000 -13.285000 0.406000 45.000000 46.000000 41.000000
14.484000 -13.279000 0.413000 86.000000 91.000000 84.000000
14.605000 -13.339000 0.398000 44.000000 44.000000 42.000000
14.427000 -13.302000 0.412000 83.000000 88.000000 81.000000
14.320000 -13.315000 0.416000 86.000000 87.000000 81.000000
14.505000 -13.344000 0.403000 51.000000 53.000000 48.000000
14.381000 -13.322000 0.412000 75.000000 78.000000 69.000000
14.435000 -13.335000 0.407000 91.000000 94.000000 85.000000
14.488000 -13.302000 0.409000 86.000000 87.000000 81.000000
14.604000 -13.304000 0.403000 46.000000 46.000000 46.000000
14.476000 -13.342000 0.404000 53.000000 56.000000 49.000000
14.528000 -13.319000 0.405000 63.000000 66.000000 59.000000
14.458000 -13.319000 0.408000 44.000000 45.000000 39.000000
14.496000 -13.310000 0.408000 71.000000 72.000000 66.000000
14.591000 -13.288000 0.406000 44.000000 44.000000 42.000000
14.349000 -13.323000 0.413000 63.000000 66.000000 55.000000
14.517000 -13.276000 0.412000 87.000000 90.000000 83.000000
14.622000 -13.360000 0.395000 39.000000 41.000000 40.000000
14.564000 -13.337000 0.401000 53.000000 55.000000 50.000000
14.581000 -13.308000 0.404000 50.000000 50.000000 48.000000
14.576000 -13.308000 0.404000 49.000000 50.000000 45.000000
14.510000 -13.211000 0.438000 49.000000 49.000000 47.000000
14.488000 -13.240000 0.426000 65.000000 68.000000 59.000000
14.461000 -13.232000 0.434000 60.000000 66.000000 54.000000
14.396000 -13.277000 0.421000 73.000000 78.000000 71.000000
14.325000 -13.305000 0.418000 89.000000 94.000000 90.000000
14.502000 -13.247000 0.419000 69.000000 72.000000 65.000000
14.477000 -13.229000 0.433000 56.000000 61.000000 54.000000
14.321000 -13.303000 0.420000 86.000000 91.000000 85.000000
14.519000 -13.218000 0.432000 39.000000 39.000000 39.000000
14.379000 -13.272000 0.427000 70.000000 73.000000 64.000000
14.515000 -13.235000 0.424000 60.000000 61.000000 56.000000
14.493000 -13.213000 0.439000 53.000000 54.000000 49.000000
14.551000 -13.224000 0.424000 47.000000 47.000000 47.000000
14.347000 -13.292000 0.421000 74.000000 81.000000 74.000000
14.527000 -13.201000 0.440000 43.000000 46.000000 39.000000
14.520000 -13.218000 0.432000 39.000000 39.000000 39.000000
14.497000 -13.246000 0.421000 69.000000 72.000000 65.000000
14.438000 -13.256000 0.425000 81.000000 87.000000 75.000000
14.409000 -13.276000 0.419000 79.000000 84.000000 77.000000
14.513000 -13.226000 0.429000 53.000000 55.000000 50.000000
14.481000 -13.245000 0.424000 70.000000 73.000000 64.000000
14.465000 -13.263000 0.417000 84.000000 89.000000 82.000000
14.447000 -13.260000 0.422000 84.000000 90.000000 80.000000
14.410000 -13.268000 0.424000 76.000000 81.000000 74.000000
14.506000 -13.201000 0.444000 51.000000 52.000000 44.000000
14.550000 -13.227000 0.422000 48.000000 48.000000 48.000000
14.573000 -13.207000 0.429000 142.000000 143.000000 135.000000
14.542000 -13.225000 0.424000 51.000000 51.000000 51.000000
14.477000 -13.252000 0.421000 75.000000 78.000000 67.000000
14.564000 -13.209000 0.429000 64.000000 66.000000 55.000000
14.536000 -13.198000 0.440000 43.000000 43.000000 33.000000
14.499000 -13.231000 0.429000 54.000000 57.000000 50.000000
14.523000 -13.210000 0.436000 41.000000 43.000000 40.000000
14.519000 -13.222000 0.430000 46.000000 46.000000 44.000000
14.493000 -13.223000 0.434000 51.000000 53.000000 48.000000
14.345000 -13.289000 0.423000 79.000000 86.000000 78.000000
14.465000 -13.245000 0.427000 73.000000 79.000000 67.000000
14.482000 -13.223000 0.436000 55.000000 58.000000 51.000000
14.520000 -13.199000 0.442000 44.000000 47.000000 38.000000
14.502000 -13.217000 0.436000 48.000000 49.000000 44.000000
14.534000 -13.225000 0.426000 52.000000 52.000000 52.000000
14.378000 -13.288000 0.418000 75.000000 78.000000 69.000000
14.528000 -13.233000 0.423000 54.000000 55.000000 50.000000
14.406000 -13.269000 0.424000 74.000000 79.000000 72.000000
14.444000 -13.237000 0.435000 59.000000 62.000000 53.000000
14.529000 -13.240000 0.419000 60.000000 62.000000 57.000000
14.465000 -13.253000 0.422000 79.000000 85.000000 75.000000
14.569000 -13.212000 0.427000 39.000000 39.000000 37.000000
14.419000 -13.266000 0.423000 80.000000 85.000000 78.000000
14.538000 -13.235000 0.420000 54.000000 54.000000 52.000000
14.551000 -13.217000 0.427000 47.000000 49.000000 44.000000
14.396000 -13.287000 0.416000 78.000000 83.000000 76.000000
14.405000 -13.276000 0.420000 78.000000 83.000000 76.000000
14.425000 -13.248000 0.432000 68.000000 71.000000 62.000000
14.443000 -13.263000 0.421000 86.000000 92.000000 82.000000
14.415000 -13.279000 0.417000 85.000000 90.000000 83.000000
14.563000 -13.232000 0.417000 47.000000 47.000000 47.000000
14.355000 -13.291000 0.420000 71.000000 78.000000 71.000000
14.494000 -13.251000 0.419000 72.000000 75.000000 66.000000
14.545000 -13.210000 0.432000 48.000000 50.000000 45.000000
14.378000 -13.279000 0.423000 73.000000 78.000000 71.000000
14.462000 -13.244000 0.428000 73.000000 79.000000 67.000000
14.487000 -13.217000 0.438000 55.000000 57.000000 52.000000
14.413000 -13.258000 0.429000 69.000000 72.000000 63.000000
14.396000 -13.280000 0.419000 75.000000 80.000000 73.000000
14.362000 -13.291000 0.419000 73.000000 76.000000 67.000000
14.521000 -13.240000 0.420000 63.000000 64.000000 58.000000
14.535000 -13.186000 0.447000 86.000000 87.000000 69.000000
14.401000 -13.263000 0.428000 71.000000 74.000000 65.000000
14.401000 -13.272000 0.423000 75.000000 80.000000 73.000000
14.522000 -13.233000 0.424000 54.000000 55.000000 50.000000
14.461000 -13.237000 0.432000 63.000000 69.000000 55.000000
14.535000 -13.236000 0.420000 55.000000 57.000000 54.000000
14.480000 -13.249000 0.422000 73.000000 76.000000 67.000000
14.477000 -13.253000 0.420000 75.000000 78.000000 67.000000
14.383000 -13.279000 0.422000 73.000000 79.000000 67.000000
14.538000 -13.220000 0.428000 44.000000 44.000000 44.000000
14.485000 -13.238000 0.427000 63.000000 66.000000 57.000000
14.344000 -13.293000 0.422000 72.000000 79.000000 72.000000
14.491000 -13.234000 0.428000 57.000000 60.000000 53.000000
14.570000 -13.200000 0.433000 175.000000 177.000000 155.000000
14.574000 -13.223000 0.420000 41.000000 41.000000 43.000000
14.573000 -13.224000 0.420000 41.000000 41.000000 43.000000
14.549000 -13.195000 0.440000 59.000000 56.000000 39.000000
14.399000 -13.285000 0.416000 78.000000 83.000000 76.000000
14.566000 -13.208000 0.430000 92.000000 94.000000 83.000000
14.519000 -13.218000 0.432000 39.000000 39.000000 39.000000
14.560000 -13.207000 0.431000 65.000000 68.000000 51.000000
14.495000 -13.213000 0.439000 53.000000 54.000000 49.000000
14.560000 -13.228000 0.420000 49.000000 49.000000 49.000000
14.555000 -13.197000 0.437000 111.000000 114.000000 83.000000
14.543000 -13.197000 0.439000 65.000000 62.000000 47.000000
14.579000 -13.226000 0.418000 43.000000 41.000000 42.000000
14.420000 -13.252000 0.431000 68.000000 74.000000 62.000000
14.392000 -13.275000 0.423000 75.000000 81.000000 69.000000
14.476000 -13.237000 0.429000 62.000000 65.000000 54.000000
14.522000 -13.238000 0.421000 61.000000 62.000000 56.000000
14.476000 -13.244000 0.425000 70.000000 73.000000 62.000000
14.429000 -13.257000 0.426000 78.000000 84.000000 70.000000
14.429000 -13.260000 0.425000 79.000000 85.000000 73.000000
14.386000 -13.280000 0.422000 75.000000 80.000000 73.000000
14.364000 -13.294000 0.417000 73.000000 76.000000 67.000000
14.514000 -13.207000 0.439000 43.000000 45.000000 40.000000
14.532000 -13.232000 0.422000 53.000000 53.000000 51.000000
14.462000 -13.245000 0.427000 75.000000 81.000000 69.000000
14.416000 -13.271000 0.421000 81.000000 86.000000 79.000000
14.509000 -13.210000 0.438000 49.000000 50.000000 45.000000
14.494000 -13.251000 0.419000 72.000000 75.000000 66.000000
14.429000 -13.255000 0.428000 78.000000 84.000000 70.000000
14.456000 -13.265000 0.417000 87.000000 92.000000 85.000000
14.430000 -13.251000 0.430000 77.000000 83.000000 69.000000
14.473000 -13.246000 0.425000 75.000000 78.000000 67.000000
14.365000 -13.267000 0.425000 71.000000 72.000000 64.000000
14.434000 -13.228000 0.434000 42.000000 44.000000 41.000000
14.430000 -13.193000 0.430000 55.000000 58.000000 49.000000
14.354000 -13.270000 0.424000 75.000000 76.000000 68.000000
14.399000 -13.250000 0.430000 60.000000 61.000000 56.000000
14.351000 -13.245000 0.421000 182.000000 184.000000 181.000000
14.370000 -13.268000 0.426000 72.000000 73.000000 65.000000
14.500000 -13.188000 0.441000 93.000000 97.000000 83.000000
14.436000 -13.238000 0.435000 56.000000 59.000000 52.000000
14.341000 -13.280000 0.422000 80.000000 83.000000 74.000000
14.328000 -13.285000 0.421000 69.000000 76.000000 60.000000
14.306000 -13.304000 0.419000 82.000000 85.000000 76.000000
14.376000 -13.260000 0.427000 64.000000 65.000000 60.000000
14.368000 -13.268000 0.426000 75.000000 76.000000 68.000000
14.325000 -13.279000 0.420000 108.000000 115.000000 97.000000
14.406000 -13.234000 0.429000 43.000000 43.000000 41.000000
14.417000 -13.232000 0.431000 44.000000 44.000000 46.000000
14.376000 -13.254000 0.426000 63.000000 62.000000 60.000000
14.380000 -13.231000 0.424000 42.000000 44.000000 39.000000
14.361000 -13.274000 0.425000 67.000000 70.000000 61.000000
14.383000 -13.235000 0.425000 45.000000 45.000000 43.000000
14.454000 -13.191000 0.434000 43.000000 44.000000 38.000000
14.444000 -13.222000 0.435000 42.000000 42.000000 40.000000
14.358000 -13.241000 0.422000 187.000000 189.000000 186.000000
14.328000 -13.284000 0.421000 75.000000 78.000000 67.000000
14.339000 -13.286000 0.423000 75.000000 81.000000 71.000000
14.474000 -13.204000 0.438000 54.000000 55.000000 50.000000
14.410000 -13.242000 0.431000 54.000000 55.000000 50.000000
14.475000 -13.187000 0.437000 57.000000 59.000000 48.000000
14.308000 -13.295000 0.418000 96.000000 102.000000 90.000000
14.399000 -13.202000 0.425000 64.000000 65.000000 59.000000
14.416000 -13.197000 0.428000 59.000000 60.000000 52.000000
14.393000 -13.218000 0.426000 47.000000 46.000000 42.000000
14.382000 -13.221000 0.424000 52.000000 53.000000 47.000000
14.451000 -13.194000 0.433000 41.000000 39.000000 40.000000
14.402000 -13.235000 0.429000 44.000000 44.000000 42.000000
14.385000 -13.248000 0.427000 49.000000 48.000000 46.000000
14.398000 -13.199000 0.425000 104.000000 105.000000 99.000000
14.364000 -13.260000 0.425000 65.000000 66.000000 60.000000
14.467000 -13.217000 0.438000 52.000000 55.000000 48.000000
14.488000 -13.191000 0.440000 67.000000 69.000000 56.000000
14.386000 -13.254000 0.428000 61.000000 62.000000 57.000000
14.458000 -13.223000 0.437000 52.000000 55.000000 46.000000
14.350000 -13.250000 0.421000 211.000000 213.000000 208.000000
14.425000 -13.227000 0.432000 43.000000 43.000000 43.000000
14.381000 -13.254000 0.427000 58.000000 57.000000 55.000000
14.471000 -13.214000 0.439000 52.000000 55.000000 48.000000
14.477000 -13.205000 0.439000 49.000000 50.000000 45.000000
14.403000 -13.201000 0.426000 56.000000 57.000000 51.000000
14.358000 -13.279000 0.425000 75.000000 78.000000 69.000000
14.344000 -13.279000 0.423000 84.000000 87.000000 78.000000
14.498000 -13.184000 0.441000 117.000000 121.000000 106.000000
14.416000 -13.195000 0.427000 55.000000 57.000000 46.000000
14.372000 -13.232000 0.423000 44.000000 46.000000 41.000000
14.461000 -13.214000 0.437000 52.000000 53.000000 47.000000
14.390000 -13.217000 0.425000 54.000000 53.000000 49.000000
14.422000 -13.234000 0.432000 51.000000 53.000000 52.000000
14.350000 -13.255000 0.422000 182.000000 183.000000 178.000000
14.359000 -13.276000 0.425000 71.000000 74.000000 65.000000
14.337000 -13.271000 0.421000 106.000000 109.000000 98.000000
14.476000 -13.217000 0.440000 54.000000 57.000000 50.000000
14.364000 -13.243000 0.423000 51.000000 52.000000 47.000000
14.357000 -13.237000 0.421000 175.000000 181.000000 179.000000
14.466000 -13.213000 0.438000 51.000000 54.000000 47.000000
14.477000 -13.191000 0.438000 51.000000 52.000000 44.000000
14.465000 -13.208000 0.437000 50.000000 51.000000 46.000000
14.352000 -13.247000 0.421000 197.000000 199.000000 196.000000
14.449000 -13.219000 0.435000 44.000000 44.000000 42.000000
14.458000 -13.193000 0.434000 42.000000 40.000000 41.000000
14.459000 -13.203000 0.436000 47.000000 46.000000 44.000000
14.477000 -13.189000 0.437000 51.000000 53.000000 42.000000
14.447000 -13.228000 0.436000 42.000000 44.000000 39.000000
14.393000 -13.209000 0.425000 48.000000 47.000000 42.000000
14.369000 -13.264000 0.426000 69.000000 70.000000 62.000000
14.431000 -13.229000 0.433000 43.000000 43.000000 43.000000
14.523000 -13.189000 0.446000 45.000000 49.000000 35.000000
14.443000 -13.197000 0.432000 43.000000 43.000000 35.000000
14.426000 -13.217000 0.431000 41.000000 40.000000 38.000000
14.426000 -13.241000 0.434000 54.000000 56.000000 51.000000
14.430000 -13.214000 0.432000 41.000000 40.000000 38.000000
14.356000 -13.246000 0.422000 202.000000 202.000000 200.000000
14.365000 -13.246000 0.423000 44.000000 44.000000 42.000000
14.321000 -13.284000 0.419000 98.000000 105.000000 89.000000
14.348000 -13.252000 0.421000 211.000000 213.000000 208.000000
14.292000 -13.313000 0.417000 76.000000 79.000000 70.000000
14.400000 -13.198000 0.425000 214.000000 217.000000 208.000000
14.377000 -13.234000 0.424000 45.000000 46.000000 41.000000
14.403000 -13.255000 0.431000 64.000000 67.000000 60.000000
14.351000 -13.283000 0.424000 78.000000 83.000000 76.000000
14.543000 -13.178000 0.448000 96.000000 95.000000 75.000000
14.399000 -13.209000 0.426000 50.000000 49.000000 47.000000
14.475000 -13.658000 0.405000 123.000000 130.000000 114.000000
14.525000 -13.661000 0.406000 87.000000 90.000000 81.000000
14.511000 -13.662000 0.405000 91.000000 97.000000 85.000000
14.468000 -13.695000 0.379000 30.000000 30.000000 30.000000
14.454000 -13.685000 0.385000 149.000000 152.000000 143.000000
14.531000 -13.667000 0.403000 79.000000 82.000000 73.000000
14.472000 -13.691000 0.381000 30.000000 30.000000 28.000000
14.603000 -13.666000 0.408000 23.000000 23.000000 23.000000
14.533000 -13.653000 0.412000 90.000000 93.000000 84.000000
14.492000 -13.689000 0.384000 34.000000 36.000000 33.000000
14.544000 -13.658000 0.409000 81.000000 84.000000 77.000000
14.460000 -13.660000 0.403000 149.000000 162.000000 144.000000
14.571000 -13.661000 0.409000 42.000000 45.000000 38.000000
14.512000 -13.650000 0.413000 92.000000 98.000000 86.000000
14.466000 -13.694000 0.379000 30.000000 30.000000 30.000000
14.566000 -13.658000 0.411000 54.000000 57.000000 48.000000
14.516000 -13.680000 0.392000 74.000000 77.000000 70.000000
14.486000 -13.682000 0.389000 134.000000 137.000000 126.000000
14.518000 -13.673000 0.397000 83.000000 91.000000 80.000000
14.529000 -13.664000 0.404000 79.000000 82.000000 73.000000
14.589000 -13.660000 0.411000 24.000000 24.000000 22.000000
14.554000 -13.655000 0.412000 69.000000 72.000000 63.000000
14.488000 -13.675000 0.394000 167.000000 175.000000 154.000000
14.547000 -13.670000 0.401000 57.000000 59.000000 54.000000
14.481000 -13.671000 0.396000 159.000000 167.000000 146.000000
14.605000 -13.658000 0.413000 22.000000 23.000000 18.000000
14.461000 -13.677000 0.391000 126.000000 130.000000 113.000000
14.580000 -13.665000 0.407000 39.000000 40.000000 34.000000
14.501000 -13.669000 0.399000 110.000000 118.000000 97.000000
14.570000 -13.659000 0.410000 45.000000 48.000000 41.000000
14.576000 -13.663000 0.408000 35.000000 38.000000 31.000000
14.451000 -13.674000 0.392000 111.000000 117.000000 105.000000
14.565000 -13.659000 0.410000 54.000000 57.000000 48.000000
14.552000 -13.673000 0.399000 47.000000 48.000000 43.000000
14.460000 -13.646000 0.413000 98.000000 102.000000 85.000000
14.492000 -13.678000 0.392000 98.000000 105.000000 89.000000
14.493000 -13.653000 0.410000 96.000000 100.000000 86.000000
14.525000 -13.651000 0.413000 88.000000 94.000000 84.000000
14.558000 -13.667000 0.404000 51.000000 54.000000 47.000000
14.556000 -13.667000 0.404000 58.000000 61.000000 54.000000
14.461000 -13.653000 0.408000 119.000000 123.000000 106.000000
14.552000 -13.674000 0.399000 47.000000 48.000000 43.000000
14.540000 -13.656000 0.411000 86.000000 89.000000 82.000000
14.493000 -13.671000 0.397000 121.000000 129.000000 108.000000
14.478000 -13.686000 0.385000 89.000000 92.000000 83.000000
14.515000 -13.654000 0.410000 91.000000 97.000000 85.000000
14.519000 -13.663000 0.404000 89.000000 92.000000 83.000000
14.545000 -13.672000 0.400000 49.000000 51.000000 46.000000
14.470000 -13.681000 0.389000 124.000000 128.000000 114.000000
14.479000 -13.649000 0.412000 100.000000 104.000000 89.000000
14.587000 -13.659000 0.411000 23.000000 24.000000 19.000000
14.532000 -13.655000 0.411000 85.000000 88.000000 79.000000
14.480000 -13.646000 0.414000 97.000000 101.000000 86.000000
14.465000 -13.648000 0.412000 98.000000 102.000000 85.000000
14.456000 -13.669000 0.396000 219.000000 232.000000 215.000000
14.535000 -13.655000 0.411000 87.000000 90.000000 81.000000
14.556000 -13.653000 0.413000 68.000000 71.000000 60.000000
14.454000 -13.673000 0.394000 176.000000 187.000000 173.000000
14.517000 -13.678000 0.393000 76.000000 81.000000 74.000000
14.505000 -13.657000 0.408000 95.000000 98.000000 91.000000
14.475000 -13.668000 0.398000 169.000000 176.000000 160.000000
14.528000 -13.662000 0.405000 85.000000 88.000000 79.000000
14.558000 -13.676000 0.398000 62.000000 61.000000 56.000000
14.473000 -13.462000 0.408000 51.000000 52.000000 46.000000
14.440000 -13.528000 0.412000 72.000000 82.000000 73.000000
14.378000 -13.554000 0.418000 93.000000 97.000000 83.000000
14.466000 -13.510000 0.410000 76.000000 84.000000 73.000000
14.577000 -13.433000 0.400000 57.000000 58.000000 53.000000
14.490000 -13.555000 0.409000 124.000000 127.000000 118.000000
14.569000 -13.407000 0.400000 43.000000 44.000000 38.000000
14.420000 -13.506000 0.413000 85.000000 91.000000 81.000000
14.464000 -13.489000 0.410000 55.000000 58.000000 47.000000
14.496000 -13.488000 0.407000 43.000000 44.000000 39.000000
14.463000 -13.511000 0.410000 76.000000 84.000000 73.000000
14.472000 -13.540000 0.410000 80.000000 86.000000 76.000000
14.380000 -13.533000 0.417000 90.000000 96.000000 86.000000
14.555000 -13.429000 0.401000 52.000000 55.000000 46.000000
14.470000 -13.494000 0.409000 59.000000 62.000000 53.000000
14.476000 -13.515000 0.409000 77.000000 83.000000 73.000000
14.467000 -13.598000 0.412000 102.000000 110.000000 97.000000
14.492000 -13.493000 0.408000 47.000000 48.000000 43.000000
14.428000 -13.601000 0.415000 88.000000 96.000000 85.000000
14.525000 -13.474000 0.405000 49.000000 49.000000 49.000000
14.579000 -13.416000 0.399000 47.000000 48.000000 43.000000
14.469000 -13.486000 0.409000 52.000000 55.000000 46.000000
14.540000 -13.450000 0.403000 74.000000 77.000000 66.000000
14.453000 -13.642000 0.414000 97.000000 101.000000 86.000000
14.555000 -13.422000 0.401000 51.000000 54.000000 47.000000
14.542000 -13.490000 0.404000 66.000000 69.000000 62.000000
14.434000 -13.581000 0.414000 93.000000 104.000000 90.000000
14.548000 -13.439000 0.402000 63.000000 67.000000 53.000000
14.465000 -13.531000 0.410000 114.000000 120.000000 110.000000
14.433000 -13.582000 0.414000 93.000000 104.000000 90.000000
14.450000 -13.546000 0.412000 118.000000 126.000000 115.000000
14.455000 -13.617000 0.413000 99.000000 107.000000 92.000000
14.413000 -13.564000 0.415000 89.000000 99.000000 88.000000
14.382000 -13.515000 0.416000 102.000000 105.000000 96.000000
14.531000 -13.513000 0.405000 100.000000 106.000000 96.000000
14.436000 -13.624000 0.415000 86.000000 94.000000 83.000000
14.596000 -13.407000 0.398000 46.000000 46.000000 44.000000
14.487000 -13.561000 0.409000 115.000000 121.000000 111.000000
14.498000 -13.569000 0.409000 111.000000 119.000000 108.000000
14.540000 -13.431000 0.402000 66.000000 69.000000 58.000000
14.449000 -13.525000 0.412000 74.000000 84.000000 73.000000
14.482000 -13.472000 0.408000 48.000000 49.000000 43.000000
14.522000 -13.495000 0.405000 50.000000 55.000000 49.000000
14.379000 -13.518000 0.417000 102.000000 105.000000 94.000000
14.397000 -13.536000 0.416000 89.000000 97.000000 84.000000
14.482000 -13.489000 0.408000 53.000000 56.000000 49.000000
14.414000 -13.497000 0.414000 78.000000 84.000000 74.000000
14.486000 -13.564000 0.410000 111.000000 116.000000 109.000000
14.403000 -13.525000 0.415000 88.000000 96.000000 85.000000
14.455000 -13.540000 0.411000 115.000000 121.000000 111.000000
14.526000 -13.492000 0.405000 49.000000 54.000000 48.000000
14.425000 -13.586000 0.415000 88.000000 99.000000 85.000000
14.515000 -13.525000 0.407000 101.000000 107.000000 97.000000
14.548000 -13.463000 0.403000 38.000000 41.000000 32.000000
14.408000 -13.563000 0.416000 91.000000 99.000000 88.000000
14.543000 -13.481000 0.403000 46.000000 51.000000 47.000000
14.584000 -13.440000 0.399000 41.000000 42.000000 37.000000
14.384000 -13.549000 0.417000 92.000000 94.000000 83.000000
14.462000 -13.582000 0.412000 103.000000 111.000000 98.000000
14.422000 -13.539000 0.414000 89.000000 96.000000 88.000000
14.446000 -13.489000 0.411000 66.000000 69.000000 60.000000
14.400000 -13.555000 0.416000 94.000000 101.000000 93.000000
14.576000 -13.406000 0.399000 43.000000 44.000000 39.000000
14.370000 -13.525000 0.418000 104.000000 108.000000 94.000000
14.459000 -13.565000 0.412000 102.000000 108.000000 96.000000
14.499000 -13.569000 0.409000 111.000000 119.000000 108.000000
14.407000 -13.588000 0.416000 87.000000 93.000000 81.000000
14.468000 -13.519000 0.410000 100.000000 108.000000 97.000000
14.561000 -13.461000 0.402000 39.000000 44.000000 37.000000
14.479000 -13.468000 0.408000 51.000000 52.000000 46.000000
14.499000 -13.448000 0.406000 64.000000 65.000000 57.000000
14.543000 -13.502000 0.404000 69.000000 75.000000 65.000000
14.498000 -13.453000 0.406000 61.000000 62.000000 54.000000
14.450000 -13.629000 0.414000 97.000000 103.000000 91.000000
14.399000 -13.570000 0.416000 90.000000 93.000000 82.000000
14.421000 -13.590000 0.415000 86.000000 94.000000 83.000000
14.499000 -13.504000 0.407000 59.000000 64.000000 58.000000
14.461000 -13.598000 0.412000 101.000000 109.000000 96.000000
14.468000 -13.463000 0.409000 51.000000 54.000000 47.000000
14.469000 -13.513000 0.410000 86.000000 92.000000 82.000000
14.460000 -13.514000 0.410000 82.000000 90.000000 79.000000
14.597000 -13.407000 0.398000 46.000000 46.000000 44.000000
14.403000 -13.583000 0.416000 84.000000 90.000000 76.000000
14.404000 -13.580000 0.416000 85.000000 91.000000 79.000000
14.597000 -13.406000 0.397000 46.000000 46.000000 44.000000
14.470000 -13.517000 0.410000 97.000000 105.000000 94.000000
14.610000 -13.384000 0.396000 41.000000 41.000000 39.000000
14.626000 -13.368000 0.394000 38.000000 40.000000 39.000000
14.511000 -13.510000 0.406000 98.000000 103.000000 96.000000
14.491000 -13.523000 0.408000 69.000000 72.000000 63.000000
14.443000 -13.582000 0.413000 96.000000 104.000000 89.000000
14.489000 -13.512000 0.408000 47.000000 50.000000 41.000000
14.483000 -13.468000 0.408000 50.000000 51.000000 45.000000
14.493000 -13.576000 0.409000 110.000000 120.000000 111.000000
14.539000 -13.506000 0.404000 72.000000 78.000000 68.000000
14.466000 -13.507000 0.410000 76.000000 82.000000 72.000000
14.587000 -13.421000 0.399000 50.000000 51.000000 46.000000
14.383000 -13.558000 0.417000 96.000000 98.000000 87.000000
14.542000 -13.490000 0.404000 66.000000 69.000000 62.000000
14.409000 -13.586000 0.416000 87.000000 95.000000 82.000000
14.448000 -13.628000 0.414000 93.000000 99.000000 89.000000
14.437000 -13.508000 0.412000 68.000000 76.000000 65.000000
14.498000 -13.456000 0.406000 59.000000 60.000000 54.000000
14.423000 -13.493000 0.413000 81.000000 87.000000 77.000000
14.453000 -13.497000 0.411000 64.000000 67.000000 56.000000
14.429000 -13.487000 0.412000 80.000000 86.000000 76.000000
14.469000 -13.589000 0.412000 105.000000 111.000000 101.000000
14.461000 -13.499000 0.410000 59.000000 63.000000 49.000000
14.601000 -13.397000 0.397000 44.000000 44.000000 42.000000
14.486000 -13.519000 0.409000 48.000000 51.000000 42.000000
14.507000 -13.520000 0.407000 110.000000 116.000000 106.000000
14.429000 -13.590000 0.415000 83.000000 93.000000 82.000000
14.422000 -13.521000 0.413000 90.000000 100.000000 89.000000
14.449000 -13.493000 0.411000 67.000000 70.000000 59.000000
14.451000 -13.549000 0.412000 124.000000 132.000000 121.000000
14.579000 -13.429000 0.399000 55.000000 56.000000 51.000000
14.468000 -13.610000 0.412000 101.000000 109.000000 94.000000
14.569000 -13.409000 0.400000 43.000000 44.000000 38.000000
14.489000 -13.499000 0.408000 44.000000 48.000000 47.000000
14.397000 -13.528000 0.415000 88.000000 96.000000 85.000000
14.546000 -13.432000 0.402000 64.000000 67.000000 56.000000
14.518000 -13.436000 0.404000 71.000000 74.000000 63.000000
14.417000 -13.543000 0.414000 91.000000 98.000000 90.000000
14.542000 -13.432000 0.402000 66.000000 69.000000 58.000000
14.515000 -13.489000 0.406000 45.000000 50.000000 46.000000
14.503000 -13.558000 0.408000 129.000000 135.000000 125.000000
14.457000 -13.529000 0.411000 106.000000 114.000000 103.000000
14.467000 -13.560000 0.411000 91.000000 94.000000 87.000000
14.490000 -13.458000 0.407000 56.000000 57.000000 51.000000
14.598000 -13.414000 0.398000 48.000000 48.000000 46.000000
14.516000 -13.525000 0.406000 101.000000 107.000000 97.000000
14.452000 -13.611000 0.413000 98.000000 106.000000 93.000000
14.392000 -13.547000 0.416000 90.000000 93.000000 84.000000
14.485000 -13.492000 0.408000 52.000000 55.000000 48.000000
14.456000 -13.488000 0.410000 63.000000 66.000000 55.000000
14.490000 -13.452000 0.407000 62.000000 63.000000 55.000000
14.565000 -13.457000 0.401000 40.000000 43.000000 36.000000
14.425000 -13.563000 0.414000 96.000000 106.000000 95.000000
14.541000 -13.470000 0.403000 43.000000 45.000000 40.000000
14.364000 -13.537000 0.418000 101.000000 105.000000 91.000000
14.466000 -13.602000 0.412000 102.000000 110.000000 95.000000
14.411000 -13.565000 0.415000 89.000000 99.000000 88.000000
14.530000 -13.521000 0.405000 83.000000 88.000000 81.000000
14.373000 -13.532000 0.417000 102.000000 105.000000 94.000000
14.473000 -13.608000 0.412000 101.000000 109.000000 94.000000
14.468000 -13.590000 0.412000 105.000000 111.000000 101.000000
14.411000 -13.500000 0.414000 77.000000 83.000000 73.000000
14.491000 -13.554000 0.409000 116.000000 119.000000 110.000000
14.475000 -13.584000 0.411000 104.000000 109.000000 102.000000
14.427000 -13.537000 0.413000 90.000000 97.000000 89.000000
14.553000 -13.447000 0.402000 60.000000 63.000000 52.000000
14.442000 -13.505000 0.412000 69.000000 72.000000 63.000000
14.432000 -13.520000 0.413000 82.000000 92.000000 81.000000
14.474000 -13.503000 0.409000 72.000000 75.000000 64.000000
14.415000 -13.497000 0.413000 80.000000 86.000000 76.000000
14.427000 -13.553000 0.414000 102.000000 110.000000 99.000000
14.396000 -13.538000 0.416000 89.000000 97.000000 84.000000
14.438000 -13.486000 0.411000 74.000000 77.000000 70.000000
14.422000 -13.552000 0.414000 95.000000 103.000000 92.000000
14.490000 -13.453000 0.407000 62.000000 63.000000 55.000000
14.494000 -13.550000 0.409000 109.000000 110.000000 102.000000
14.454000 -13.575000 0.412000 105.000000 113.000000 98.000000
14.489000 -13.546000 0.409000 105.000000 108.000000 99.000000
14.529000 -13.485000 0.405000 39.000000 44.000000 40.000000
14.516000 -13.445000 0.405000 52.000000 55.000000 44.000000
14.450000 -13.616000 0.414000 94.000000 105.000000 91.000000
14.457000 -13.560000 0.412000 119.000000 127.000000 116.000000
14.370000 -13.530000 0.418000 106.000000 109.000000 98.000000
14.452000 -13.477000 0.410000 66.000000 69.000000 58.000000
14.511000 -13.520000 0.407000 109.000000 115.000000 105.000000
14.457000 -13.591000 0.412000 104.000000 112.000000 99.000000
14.459000 -13.536000 0.411000 114.000000 122.000000 111.000000
14.512000 -13.523000 0.407000 115.000000 121.000000 111.000000
14.517000 -13.464000 0.405000 33.000000 34.000000 29.000000
14.471000 -13.556000 0.411000 82.000000 85.000000 76.000000
14.426000 -13.543000 0.414000 91.000000 98.000000 90.000000
14.458000 -13.632000 0.413000 96.000000 100.000000 86.000000
14.511000 -13.451000 0.405000 51.000000 52.000000 44.000000
14.553000 -13.475000 0.402000 51.000000 56.000000 52.000000
14.547000 -13.471000 0.403000 44.000000 49.000000 45.000000
14.505000 -13.464000 0.406000 45.000000 46.000000 41.000000
14.455000 -13.547000 0.412000 124.000000 132.000000 121.000000
14.446000 -13.599000 0.413000 95.000000 103.000000 92.000000
14.454000 -13.626000 0.413000 97.000000 103.000000 93.000000
14.397000 -13.565000 0.416000 94.000000 97.000000 86.000000
14.517000 -13.456000 0.405000 40.000000 41.000000 36.000000
14.439000 -13.505000 0.412000 69.000000 72.000000 63.000000
14.523000 -13.475000 0.405000 47.000000 47.000000 47.000000
14.410000 -13.518000 0.414000 89.000000 95.000000 85.000000
14.472000 -13.515000 0.410000 92.000000 98.000000 88.000000
14.447000 -13.496000 0.411000 68.000000 71.000000 60.000000
14.544000 -13.437000 0.402000 66.000000 70.000000 56.000000
14.441000 -13.565000 0.413000 112.000000 120.000000 109.000000
14.476000 -13.497000 0.409000 62.000000 65.000000 56.000000
14.502000 -13.556000 0.408000 141.000000 144.000000 135.000000
14.546000 -13.462000 0.403000 38.000000 41.000000 34.000000
14.439000 -13.567000 0.413000 112.000000 120.000000 109.000000
14.397000 -13.553000 0.416000 95.000000 101.000000 91.000000
14.459000 -13.561000 0.412000 107.000000 113.000000 103.000000
14.520000 -13.499000 0.406000 68.000000 73.000000 67.000000
14.510000 -13.528000 0.407000 104.000000 110.000000 100.000000
14.520000 -13.517000 0.406000 120.000000 126.000000 116.000000
14.423000 -13.560000 0.414000 95.000000 105.000000 94.000000
14.469000 -13.599000 0.412000 102.000000 110.000000 97.000000
14.554000 -13.459000 0.402000 36.000000 39.000000 30.000000
14.468000 -13.581000 0.411000 99.000000 105.000000 95.000000
