0.07438911497592926 -0.4340783655643463 -0.827330470085144
0.17310839891433716 0.25082820653915405 -0.7060809135437012
-0.18000279366970062 -0.03082292340695858 0.20568548142910004
-0.29498812556266785 -0.42423903942108154 0.2777622938156128
0.21908867359161377 0.06287477165460587 -0.1274377703666687
0.24428409337997437 -0.032038748264312744 0.6328115463256836
-0.16856098175048828 -0.1218930333852768 0.5540913939476013
0.24428409337997437 0.21467041969299316 -0.2584017813205719
0.04256318137049675 -0.06814976036548615 0.363156795501709
0.07860876619815826 -0.48232516646385193 0.6015915870666504
-0.17586924135684967 0.13155044615268707 0.22458204627037048
0.05048668384552002 -0.2690396010875702 0.20568548142910004
-0.0814150720834732 -0.1218930333852768 0.5252445340156555
0.03194267302751541 -0.4362179636955261 -0.827330470085144
0.10522551834583282 -0.1055334210395813 0.6340091228485107
0.24428409337997437 -0.03831229731440544 -0.49829256534576416
-0.007670219987630844 0.2749680280685425 -0.6467190384864807
-0.09845685958862305 0.063355952501297 0.3820550739765167
-0.2675723135471344 0.25082820653915405 -0.014145730063319206
0.060718078166246414 -0.4765287935733795 0.3646962344646454
-0.06834888458251953 -0.14294025301933289 0.6340091228485107
0.24428409337997437 0.13141906261444092 -0.06437087059020996
-0.027092892676591873 0.25082820653915405 -0.10088890790939331
-0.07793254405260086 -0.15705828368663788 0.20568548142910004
-0.20123954117298126 0.25082820653915405 -0.3569745719432831
0.24428409337997437 -0.1936877816915512 0.21031174063682556
0.24428409337997437 -0.1705957055091858 -0.8428658246994019
-0.3200760781764984 0.22563281655311584 -0.5294902920722961
-0.20644286274909973 -0.04181710258126259 0.3820550739765167
-0.29702115058898926 0.22563281655311584 0.07764881104230881
0.2440488338470459 -0.0515170693397522 -0.3023463487625122
0.05206099525094032 0.24015077948570251 -0.846226155757904
-0.2608899474143982 0.04949137941002846 0.3820550739765167
-0.04520675167441368 0.25082820653915405 -0.4590913951396942
0.07061779499053955 0.25082820653915405 -0.47939419746398926
-0.038233716040849686 -0.33522239327430725 0.20568548142910004
0.17041751742362976 0.25082820653915405 -0.32420986890792847
-0.166080504655838 -0.36949896812438965 0.20568548142910004
-0.18739894032478333 0.1154557317495346 0.262837678194046
-0.3021365702152252 -0.30537497997283936 0.20568548142910004
-0.2498849630355835 0.04601302370429039 0.6340091228485107
-0.07698137313127518 0.25082820653915405 0.21699856221675873
0.21908867359161377 -0.026971258223056793 0.03931237757205963
0.24428409337997437 0.10786605626344681 -0.3328755795955658
0.13951896131038666 0.1560009866952896 0.20568548142910004
0.24428409337997437 -0.31398651003837585 0.533507227897644
-0.0001786270586308092 -0.4574768841266632 0.5927926898002625
-0.1386585235595703 0.15746493637561798 0.363156795501709
0.09043586254119873 -0.007623795885592699 0.20568548142910004
0.21908867359161377 0.04511013999581337 -0.27115124464035034
-0.12435005605220795 0.22563281655311584 -0.3492676615715027
0.17452707886695862 -0.2933329939842224 0.20568548142910004
-0.11085312068462372 0.25082820653915405 -0.8272878527641296
0.24428409337997437 -0.320889949798584 0.5851399898529053
0.24428409337997437 -0.016231786459684372 0.1050414890050888
0.2257612943649292 -0.43158459663391113 -0.827330470085144
0.24428409337997437 -0.1699010282754898 0.26778799295425415
0.24428409337997437 0.1025979295372963 -0.09160419553518295
-0.12311070412397385 -0.43356168270111084 0.3340586721897125
0.1889660507440567 0.25082820653915405 0.2311001718044281
0.24428409337997437 0.1983741968870163 -0.5560705661773682
0.15514490008354187 -0.1218930333852768 0.5057425498962402
-0.3604082763195038 -0.33570000529289246 0.42624205350875854
-0.30773231387138367 0.22563281655311584 0.3381611108779907
-0.12970253825187683 0.25082820653915405 -0.4382195472717285
0.18457239866256714 -0.4924379587173462 0.30398130416870117
0.21908867359161377 0.0332963652908802 -0.7348372340202332
-0.3428460657596588 0.10081258416175842 0.20568548142910004
0.11544305831193924 0.22563281655311584 0.07848422229290009
-0.15792618691921234 0.07788192480802536 0.22458204627037048
0.11001423746347427 0.1154557317495346 0.32873815298080444
-0.051623500883579254 0.22563281655311584 -0.34839409589767456
-0.24155662953853607 -0.42423903942108154 0.24083919823169708
0.041909679770469666 -0.40134745836257935 0.20568548142910004
0.24428409337997437 0.02297227829694748 -0.3513513207435608
-0.05651814118027687 0.1154557317495346 0.33943867683410645
0.16796012222766876 -0.1218930333852768 0.3372999429702759
-0.30065396428108215 -0.2219851016998291 -0.76506108045578
-0.002091808943077922 0.25082820653915405 -0.5412055253982544
0.24428409337997437 0.017467111349105835 -0.6425508856773376
0.0023025611881166697 -0.07095064222812653 0.22458204627037048
-0.07929369807243347 -0.09930843859910965 0.20568548142910004
0.007737506181001663 0.25082820653915405 -0.018369821831583977
0.008105938322842121 -0.07247480005025864 -0.827330470085144
0.13142944872379303 0.07504810392856598 0.363156795501709
-0.12012419104576111 -0.06407579034566879 0.22458204627037048
-0.29986119270324707 0.25082820653915405 -0.1409098505973816
-0.10124051570892334 -0.333548903465271 0.6340091228485107
0.09371890872716904 0.32385048270225525 -0.827330470085144
0.24428409337997437 0.22214467823505402 -0.017191728577017784
-0.2586873769760132 0.08670208603143692 0.22458204627037048
-0.18721960484981537 0.09439743310213089 0.363156795501709
-0.0989595279097557 0.25082820653915405 0.15057255327701569
0.24428409337997437 -0.037603843957185745 -0.056560032069683075
0.10401279479265213 -0.25380781292915344 0.6340091228485107
-0.14370737969875336 -0.23968136310577393 0.20568548142910004
0.24428409337997437 -0.12653091549873352 0.44529661536216736
0.24428409337997437 0.19859258830547333 -0.4870868921279907
-0.25182920694351196 0.10918175429105759 0.3820550739765167
-0.3459266722202301 -0.42423903942108154 0.5237060189247131
-0.04007108137011528 0.12546288967132568 0.20568548142910004
0.00801023282110691 -0.45944952964782715 0.3855849802494049
-0.3604082763195038 -0.3124435245990753 0.476650595664978
0.22268156707286835 0.25082820653915405 0.08637221157550812
0.10365945845842361 -0.12314028292894363 0.20568548142910004
-0.15388673543930054 0.25082820653915405 -0.6405471563339233
-0.22530478239059448 0.1998337060213089 0.3820550739765167
0.08279823511838913 0.22563281655311584 0.23603715002536774
-0.048944517970085144 0.19835998117923737 0.22458204627037048
0.10704636573791504 -0.4915403723716736 0.2343485951423645
0.20092810690402985 0.13191266357898712 0.20568548142910004
0.06741465628147125 0.1383420079946518 0.3820550739765167
-0.11854837089776993 0.22563281655311584 -0.614074170589447
-0.34694141149520874 0.22563281655311584 -0.35379981994628906
-0.3089121878147125 -0.15022686123847961 -0.8042870163917542
0.16629284620285034 0.1282390058040619 -0.846226155757904
0.11824669688940048 -0.23255865275859833 -0.846226155757904
0.031220989301800728 -0.46697089076042175 0.5373459458351135
0.24428409337997437 -0.43551215529441833 0.5922715663909912
0.028120480477809906 -0.22884149849414825 0.20568548142910004
0.1810256838798523 0.06945238262414932 0.363156795501709
-0.33772438764572144 0.08948531001806259 0.3820550739765167
-0.18483145534992218 0.22563281655311584 -0.0919942855834961
-0.1357101947069168 0.22563281655311584 -0.13652871549129486
-0.2851656377315521 0.22563281655311584 -0.1861554980278015
-0.03531520441174507 -0.283355176448822 0.6340091228485107
0.2320317029953003 0.12740269303321838 -0.846226155757904
-0.050019096583127975 -0.06524554640054703 0.3820550739765167
-0.08475910127162933 0.22563281655311584 -0.31086552143096924
-0.2700989544391632 0.25082820653915405 -0.2922504246234894
-0.06135259196162224 -0.1218930333852768 0.2760426104068756
0.14098204672336578 0.2004098892211914 0.363156795501709
-0.008802149444818497 0.25082820653915405 -0.7152739763259888
-0.13515621423721313 0.02741210348904133 0.363156795501709
0.08710488677024841 -0.17124015092849731 0.6340091228485107
-0.32404184341430664 -0.4076889157295227 0.20568548142910004
-0.3331194519996643 0.22563281655311584 0.24494168162345886
-0.15320847928524017 0.07967080920934677 0.6184799671173096
0.24428409337997437 0.30911943316459656 -0.7544103264808655
-0.29536721110343933 0.25082820653915405 -0.09439432621002197
0.24428409337997437 0.07089060544967651 -0.7606816291809082
0.0942116230726242 -0.4924379587173462 -0.8308292627334595
0.11546703428030014 0.31060734391212463 -0.6800563335418701
-0.2649089992046356 0.15554910898208618 0.20568548142910004
-0.04408316686749458 -0.23801319301128387 0.6340091228485107
0.19743198156356812 0.21101893484592438 0.20568548142910004
-0.2945016026496887 -0.1218930333852768 0.40901362895965576
0.0017208826029673219 0.31871286034584045 -0.827330470085144
0.21908867359161377 -0.00181713723577559 -0.24411192536354065
0.23384101688861847 -0.06387471407651901 -0.827330470085144
0.16157427430152893 -0.17499186098575592 -0.846226155757904
-0.2168850153684616 0.25082820653915405 -0.6339854598045349
0.21908867359161377 -0.02247302047908306 -0.035071056336164474
0.19793981313705444 -0.06617159396409988 -0.827330470085144
0.17547790706157684 0.001249901601113379 -0.827330470085144
-0.36300593614578247 0.25082820653915405 0.33569303154945374
-0.3604082763195038 -0.21347032487392426 0.24399353563785553
-0.1653764843940735 0.01751682534813881 0.6151126027107239
-0.2087058275938034 0.22563281655311584 0.31545862555503845
-0.20281270146369934 0.25082820653915405 -0.20476964116096497
-0.30164915323257446 -0.2618298828601837 0.20568548142910004
0.09226648509502411 0.22563281655311584 -0.5739018321037292
0.24428409337997437 -0.2662537395954132 -0.8360760807991028
0.13825474679470062 0.1154557317495346 0.2867182791233063
-0.3618305027484894 0.22563281655311584 0.15477976202964783
0.24428409337997437 0.14338019490242004 -0.49652937054634094
-0.20868630707263947 0.14388801157474518 0.20568548142910004
-0.011246316134929657 0.055216722190380096 0.22458204627037048
0.1943211853504181 -0.413492351770401 0.20568548142910004
0.20667295157909393 0.25082820653915405 -0.0034274712670594454
0.08249550312757492 -0.4835849702358246 0.5431814193725586
-0.1778765320777893 -0.1218930333852768 0.2441701591014862
-0.15048031508922577 0.21464022994041443 0.22458204627037048
-0.3248603343963623 -0.4661567807197571 -0.7631949186325073
-0.2726620137691498 -0.2750561237335205 0.6340091228485107
-0.3604082763195038 -0.41209056973457336 0.46638426184654236
0.21861015260219574 -0.3698371946811676 0.6340091228485107
-0.03448503464460373 -0.005667561665177345 0.6340091228485107
-0.3306247889995575 0.22563281655311584 -0.2766014039516449
0.21908867359161377 -0.003368720877915621 -0.798933744430542
0.061144836246967316 0.12495417147874832 0.20568548142910004
-0.35832908749580383 0.23718291521072388 0.3820550739765167
0.24428409337997437 0.11793801188468933 -0.7060303092002869
-0.13772901892662048 -0.029038384556770325 0.363156795501709
0.24428409337997437 0.09144376218318939 0.01621304824948311
0.20624859631061554 -0.03798195347189903 0.363156795501709
-0.3529996871948242 0.25082820653915405 0.28177863359451294
-0.3547477126121521 0.25082820653915405 -0.6923930048942566
-0.024717113003134727 -0.1218930333852768 0.33810073137283325
0.24428409337997437 -0.44953209161758423 0.44558781385421753
0.12251783162355423 0.037222154438495636 0.6340091228485107
0.24428409337997437 0.1550617218017578 -0.5786808133125305
0.24428409337997437 0.05867908149957657 -0.03353402391076088
0.02484818547964096 -0.35549765825271606 0.6340091228485107
-0.07568804174661636 -0.4413369297981262 0.5754586458206177
0.2127942591905594 0.2969265878200531 -0.846226155757904
-0.1786755472421646 0.22563281655311584 0.1800941377878189
-0.24367757141590118 0.25082820653915405 0.24789446592330933
0.23483891785144806 -0.4924379587173462 0.248830184340477
-0.186822772026062 0.22563281655311584 -0.32327771186828613
-0.06610198318958282 0.22563281655311584 0.027430234476923943
-0.26071596145629883 -0.42423903942108154 0.5372340679168701
-0.015482038259506226 0.22563281655311584 -0.6754602193832397
-0.001133709098212421 0.1154557317495346 0.2839120030403137
-0.132169708609581 -0.1218930333852768 0.6048684120178223
-0.28842735290527344 -0.31485652923583984 0.6340091228485107
-0.11380580812692642 0.25082820653915405 -0.03264889866113663
0.20968256890773773 0.25082820653915405 -0.10173700004816055
0.05131711810827255 0.020350642502307892 0.20568548142910004
-0.23090316355228424 0.1154557317495346 0.3408386707305908
0.0060348198749125 0.03536934405565262 0.20568548142910004
-0.32920345664024353 0.10103541612625122 -0.7646065354347229
0.05945848673582077 0.13435231149196625 0.24589602649211884
-0.31606149673461914 0.2390090823173523 -0.827330470085144
0.24428409337997437 -0.46175336837768555 0.2820938229560852
0.24428409337997437 0.10519204288721085 -0.6740708351135254
0.24428409337997437 0.01766331121325493 -0.5716139674186707
-0.24625389277935028 -0.0679921805858612 0.3820550739765167
0.19860920310020447 -0.007680349983274937 0.22458204627037048
-0.11723001301288605 -0.1311199814081192 0.20568548142910004
0.24428409337997437 0.02159709855914116 -0.10955902934074402
0.0852574035525322 -0.42887771129608154 0.20568548142910004
-0.10278171300888062 0.09979073703289032 0.363156795501709
-0.320723295211792 -0.42423903942108154 0.5645460486412048
0.1628233790397644 -0.4924379587173462 0.492986798286438
-0.21744520962238312 -0.35624605417251587 0.20568548142910004
0.24428409337997437 -0.4700523614883423 0.356368750333786
-0.3604082763195038 -0.28124579787254333 0.3370566964149475
0.24428409337997437 0.13255541026592255 -0.6253437995910645
0.1017853394150734 -0.1218930333852768 0.4581446647644043
-0.31279000639915466 -0.031389154493808746 0.363156795501709
-0.2892671823501587 0.09435481578111649 0.20568548142910004
-0.12995733320713043 0.22563281655311584 -0.4971011281013489
0.24428409337997437 0.0280788354575634 0.20530462265014648
0.12291823327541351 -0.31226596236228943 -0.846226155757904
0.24428409337997437 0.10258283466100693 0.18361422419548035
0.027947982773184776 0.0661320611834526 0.3820550739765167
-0.2781352400779724 0.22563281655311584 -0.35522031784057617
-0.21241500973701477 0.22563281655311584 -0.7154444456100464
-0.3604082763195038 -0.2179403454065323 0.4223375916481018
0.1272062361240387 -0.05322383716702461 0.6340091228485107
0.05892448127269745 0.22563281655311584 -0.33601388335227966
-0.32348430156707764 -0.38421669602394104 -0.7627474665641785
0.24428409337997437 -0.30119526386260986 0.40276095271110535
-0.26910287141799927 0.25082820653915405 -0.05613655596971512
-0.0674569234251976 -0.4430965185165405 0.38907039165496826
0.2335498183965683 -0.1218930333852768 0.4015864133834839
0.24428054690361023 0.31060734391212463 -0.6531811952590942
0.022508777678012848 0.31060734391212463 -0.7387124300003052
-0.2024558186531067 -0.4249732196331024 0.596936047077179
0.20639686286449432 -0.19171243906021118 -0.827330470085144
0.24428409337997437 -0.3323459327220917 0.2908855676651001
0.24428409337997437 0.13430169224739075 -0.7479729652404785
-0.3289468586444855 0.22563281655311584 0.005678561516106129
0.012115184217691422 0.25082820653915405 0.2369222790002823
0.24428409337997437 0.10179004073143005 -0.4855208396911621
-0.3604082763195038 -0.35157984495162964 0.20580357313156128
0.1499256044626236 0.13435231149196625 0.3572556674480438
-0.18737763166427612 -0.4266049861907959 0.5294641852378845
-0.31080225110054016 0.25082820653915405 -0.7564024925231934
0.24428409337997437 0.20760628581047058 -0.35769546031951904
-0.38000351190567017 0.25082820653915405 -0.04355128854513168
0.169664666056633 0.2917107939720154 -0.7723462581634521
0.24296657741069794 0.25082820653915405 -0.7234744429588318
-0.21095459163188934 -0.23158474266529083 0.6340091228485107
0.24428409337997437 0.045631274580955505 0.09836266189813614
-0.06980805099010468 0.22563281655311584 0.07703889906406403
0.24428409337997437 0.19959576427936554 -0.6160282492637634
0.12540048360824585 0.22563281655311584 -0.24524474143981934
0.09372866898775101 -0.48722484707832336 0.4874141216278076
0.06367618590593338 -0.351880818605423 -0.846226155757904
0.24428409337997437 0.10106027126312256 -0.19766467809677124
0.1450268030166626 -0.4818865954875946 0.6340091228485107
-0.012408341281116009 0.1573300063610077 0.20568548142910004
0.2045147716999054 0.25082820653915405 0.37115398049354553
-0.269090473651886 0.25082820653915405 -0.6605338454246521
0.0653248056769371 -0.027715757489204407 0.6340091228485107
0.18630091845989227 -0.00033444390282966197 0.363156795501709
0.21908867359161377 0.13141193985939026 0.1539088487625122
-0.09718989580869675 0.22563281655311584 0.29490455985069275
-0.24504385888576508 -0.005508997943252325 0.6151126027107239
-0.010106751695275307 0.25082820653915405 0.35821181535720825
0.06574118137359619 -0.2939038574695587 -0.846226155757904
-0.23153793811798096 0.25082820653915405 -0.4665851891040802
0.02270844206213951 -0.3058162033557892 -0.827330470085144
-0.09559081494808197 -0.005679011344909668 0.3820550739765167
0.11234734207391739 -0.022840293124318123 -0.846226155757904
0.24428409337997437 -0.49208906292915344 0.4682530462741852
0.2395211011171341 0.10807202011346817 0.22458204627037048
-0.20325659215450287 0.21706032752990723 0.22458204627037048
-0.3105332851409912 0.1154557317495346 0.30811575055122375
-0.012949980795383453 0.22563281655311584 -0.5803054571151733
0.21908867359161377 -0.026681039482355118 -0.7579037547111511
-0.05456998199224472 0.25082820653915405 -0.77579265832901
0.14127589762210846 0.04640808328986168 0.20568548142910004
-0.2960658669471741 -0.42423903942108154 0.6284800171852112
0.08682079613208771 0.09643135964870453 -0.846226155757904
0.14045913517475128 0.3104954957962036 -0.6320642828941345
-0.1743839830160141 0.22563281655311584 -0.23697857558727264
0.12162649631500244 0.03168768435716629 0.363156795501709
-0.09640571475028992 0.07209000736474991 0.22458204627037048
0.23870253562927246 -0.0515170693397522 -0.3469124138355255
0.19342629611492157 0.22563281655311584 -0.15532344579696655
0.18783944845199585 0.31060734391212463 -0.6696265935897827
-0.10116630047559738 0.1466987580060959 0.22458204627037048
-0.2902117967605591 0.008880430832505226 0.20568548142910004
-0.21139761805534363 0.22563281655311584 -0.13748060166835785
0.24428409337997437 0.16920149326324463 0.04281913861632347
-0.307513028383255 -0.22047053277492523 0.20568548142910004
-0.31505829095840454 -0.03333083540201187 0.6151126027107239
-0.3068516254425049 -0.09273775666952133 0.3820550739765167
0.1252371370792389 -0.1218930333852768 0.33137667179107666
0.04241829738020897 -0.06120904162526131 -0.846226155757904
0.03864617645740509 -0.43750259280204773 0.6340091228485107
0.17359046638011932 -0.0907888263463974 0.3820550739765167
-0.2652347981929779 -0.42423903942108154 0.39755409955978394
-0.3033803701400757 -0.1218930333852768 0.2831343114376068
0.24428409337997437 -0.2780701518058777 0.2129591405391693
-0.32026252150535583 -0.27179354429244995 -0.7617008090019226
-0.010244714096188545 -0.4553248882293701 0.2338709682226181
0.21908867359161377 0.1506875902414322 -0.016937822103500366
-0.24929367005825043 -0.42423903942108154 0.4583497941493988
0.020363617688417435 0.25127121806144714 -0.6320642828941345
0.19517169892787933 0.2017681896686554 0.3820550739765167
-0.11330278217792511 0.22563281655311584 -0.1902575045824051
0.24428409337997437 0.05624832212924957 -0.3733231723308563
0.015365730039775372 -0.1218930333852768 0.5369864702224731
0.12994861602783203 -0.38078007102012634 0.6340091228485107
-0.23873524367809296 0.13435231149196625 0.23232708871364594
-0.023538770154118538 -0.4524839520454407 0.6334844827651978
0.058881957083940506 -0.1218930333852768 0.24383816123008728
-0.30474576354026794 0.1685454100370407 0.22458204627037048
0.21908867359161377 0.19035391509532928 0.1713014841079712
0.1523829996585846 0.22563281655311584 -0.5329260230064392
0.21908867359161377 -0.010059266351163387 -0.6190990805625916
0.11544483155012131 0.30080798268318176 -0.846226155757904
0.09781160950660706 -0.2730266749858856 0.20568548142910004
0.21908867359161377 0.01663525402545929 -0.6924196481704712
-0.18174995481967926 -0.056785017251968384 0.363156795501709
0.17205014824867249 0.1766740083694458 -0.846226155757904
0.13609211146831512 -0.37063267827033997 0.20568548142910004
-0.11309797316789627 0.25082820653915405 0.043161824345588684
-0.2759450376033783 -0.03837550804018974 0.3820550739765167
-0.34906768798828125 -0.1218930333852768 0.4801103174686432
0.04472583159804344 -0.47134679555892944 0.45654934644699097
-0.2836226522922516 0.2193419337272644 0.3820550739765167
-0.40159451961517334 0.22563281655311584 0.193068265914917
0.24428409337997437 -0.36992064118385315 0.3169802725315094
0.11220264434814453 -0.11189396679401398 -0.846226155757904
-0.28131529688835144 0.25082820653915405 -0.5174731612205505
-0.2378501147031784 0.25082820653915405 0.12420438975095749
-0.3604082763195038 -0.19277867674827576 0.5523362755775452
-0.003387001808732748 0.22563281655311584 -0.27403125166893005
0.1447826623916626 -0.009525618515908718 0.6340091228485107
-0.26357731223106384 -0.1679670661687851 0.20568548142910004
0.24428409337997437 -0.212996244430542 0.30145734548568726
-0.052881233394145966 -0.015448137186467648 0.20568548142910004
-0.16922949254512787 0.25082820653915405 -0.5544877052307129
0.15706519782543182 -0.25478440523147583 0.6340091228485107
-0.3109140992164612 -0.12639838457107544 -0.7586636543273926
-0.3038109540939331 0.14777740836143494 -0.7607153058052063
-0.23762638866901398 -0.10691934823989868 0.6151126027107239
-0.3604082763195038 -0.33671119809150696 0.3121187388896942
0.026989083737134933 0.25082820653915405 0.12169105559587479
-0.21270975470542908 0.041656654328107834 0.20568548142910004
0.11502757668495178 -0.3836582601070404 -0.846226155757904
0.2075323462486267 -0.06225733831524849 0.6340091228485107
0.1280798316001892 -0.022309310734272003 0.22458204627037048
-0.1429545283317566 0.25082820653915405 -0.2553770840167999
0.026102006435394287 0.20920519530773163 -0.827330470085144
-0.31689783930778503 -0.069121353328228 -0.8016920685768127
0.24428409337997437 -0.4263137876987457 0.23284466564655304
-0.29041779041290283 0.25082820653915405 -0.4505198299884796
-0.0017754905857145786 0.04193719103932381 0.6340091228485107
-0.03483881801366806 -0.11214229464530945 0.20568548142910004
-0.0807524248957634 -0.21827414631843567 0.6340091228485107
0.14062780141830444 -0.3791048228740692 -0.827330470085144
-0.042708076536655426 0.22563281655311584 -0.3976636230945587
0.21908867359161377 0.08822641521692276 -0.5662083029747009
0.21805617213249207 0.05659012123942375 0.3820550739765167
-0.33454349637031555 -0.009173699654638767 -0.7746669054031372
0.21908867359161377 0.03291638568043709 -0.8145321011543274
0.1437128782272339 0.25082820653915405 0.10766933113336563
-0.3436770439147949 -0.14097726345062256 0.6340091228485107
0.24428409337997437 0.10514587163925171 -0.8233007788658142
0.20406821370124817 -0.2916107177734375 -0.827330470085144
0.04079257696866989 0.25082820653915405 0.049236953258514404
-0.014485230669379234 -0.368245393037796 0.6340091228485107
-0.18881230056285858 -0.42644962668418884 0.2373422235250473
0.1290457397699356 -0.1218930333852768 0.3997434079647064
0.06791802495718002 0.2255147248506546 0.3820550739765167
0.24428409337997437 0.18540805578231812 -0.7891414165496826
-0.24543893337249756 -0.1218930333852768 0.44309139251708984
-0.2987532317638397 -0.45124197006225586 0.6046721935272217
0.24428409337997437 -0.16562020778656006 0.31586965918540955
-0.042429134249687195 0.18446965515613556 0.3820550739765167
-0.18564556539058685 0.25082820653915405 -0.8080814480781555
0.12324671447277069 -0.1218930333852768 0.5440727472305298
0.24428409337997437 0.03208452835679054 -0.30965813994407654
0.07294734567403793 -0.038785308599472046 0.22458204627037048
-0.06525467336177826 0.22563281655311584 -0.6660541296005249
-0.19880345463752747 -0.0005795585457235575 0.3820550739765167
0.16809505224227905 0.25082820653915405 0.29792481660842896
0.07610076665878296 0.2917107939720154 -0.7688217163085938
0.05207448825240135 -0.34909138083457947 0.20568548142910004
0.11395956575870514 -0.4924379587173462 0.3908237814903259
0.21908867359161377 -0.04621031880378723 -0.6673387885093689
-0.039570726454257965 0.03861686587333679 0.6151126027107239
0.05088414251804352 -0.17058834433555603 -0.846226155757904
0.08390174806118011 0.05185910686850548 0.20568548142910004
0.21908867359161377 0.10227210819721222 -0.2648693025112152
0.11103697866201401 0.25082820653915405 -0.09538359194993973
0.23100990056991577 -0.0515170693397522 -0.5982147455215454
0.24428409337997437 -0.017685092985630035 -0.466282457113266
0.20301350951194763 -0.4924379587173462 0.49922439455986023
-0.29026418924331665 -0.08761610835790634 0.22458204627037048
-0.03504141420125961 0.22563281655311584 0.13914671540260315
0.24428409337997437 -0.012281483970582485 0.1840847283601761
0.16361084580421448 -0.05385319143533707 -0.846226155757904
0.20978644490242004 0.027614520862698555 0.363156795501709
-0.3733122646808624 0.25082820653915405 -0.1409541517496109
0.03975440189242363 -0.19006292521953583 0.20568548142910004
0.14796891808509827 -0.3340975344181061 0.6340091228485107
0.0663013681769371 -0.07217765599489212 0.20568548142910004
-0.07663034647703171 -0.1218930333852768 0.44788187742233276
0.03339206799864769 0.10274706780910492 0.22458204627037048
0.21908867359161377 0.14491963386535645 0.08988784998655319
-0.31006449460983276 0.18860852718353271 0.363156795501709
-0.22313770651817322 0.25082820653915405 -0.16642141342163086
-0.2871853709220886 -0.42423903942108154 0.3276638984680176
-0.37649232149124146 0.22864507138729095 -0.6194701790809631
-0.13433055579662323 0.18751300871372223 0.20568548142910004
-0.14798030257225037 -0.0004159415257163346 0.6340091228485107
0.24428409337997437 0.30269452929496765 -0.7115647792816162
0.07276357710361481 -0.459684818983078 0.6340091228485107
0.20652557909488678 0.016778187826275826 0.6151126027107239
-0.036920592188835144 0.1154557317495346 0.2378464639186859
0.034054096788167953 -0.2352646291255951 -0.827330470085144
-0.006249850150197744 0.20273321866989136 0.363156795501709
0.15093325078487396 -0.12691159546375275 0.20568548142910004
0.11529124528169632 0.31060734391212463 -0.7243737578392029
-0.3367025852203369 -0.3396932780742645 0.6340091228485107
-0.34329262375831604 -0.1843855381011963 0.20568548142910004
-0.19461488723754883 -0.3300190567970276 0.6340091228485107
0.0034701779950410128 -0.1218930333852768 0.22667276859283447
0.24428409337997437 0.17372387647628784 -0.3899345397949219
0.24428409337997437 -0.3476584851741791 0.5559974908828735
-0.06279435008764267 -0.1218930333852768 0.34882432222366333
-0.28959834575653076 -0.06149233505129814 0.6151126027107239
0.18834815919399261 -0.21685458719730377 -0.846226155757904
-0.29874077439308167 -0.03846162557601929 -0.7676933407783508
0.24428409337997437 -0.10620982199907303 0.21049997210502625
0.21908867359161377 -0.012577563524246216 -0.5706712007522583
-0.2326565384864807 -0.18400555849075317 0.6340091228485107
0.24428409337997437 -0.3758910298347473 0.43511372804641724
-0.2447340190410614 -0.42423903942108154 0.5963847041130066
0.09931550920009613 0.22563281655311584 -0.6125525236129761
0.14316421747207642 0.25082820653915405 -0.3485467731952667
0.21908867359161377 0.027435189113020897 -0.011553389020264149
-0.19221164286136627 -0.4260821044445038 0.3768899738788605
0.19569548964500427 -0.07328658550977707 0.363156795501709
-0.21554091572761536 -0.38694754242897034 0.6340091228485107
-0.07637936621904373 0.25082820653915405 0.1170843243598938
0.0808868259191513 -0.2041672021150589 -0.827330470085144
0.03237653523683548 0.2163030356168747 0.20568548142910004
-0.004530293866991997 0.22563281655311584 0.18482248485088348
0.0263921357691288 -0.13975149393081665 0.20568548142910004
-0.1346404105424881 -0.08818941563367844 0.3820550739765167
0.18940195441246033 0.13772942125797272 0.3820550739765167
-0.12073498964309692 0.25082820653915405 -0.7254302501678467
-0.21836762130260468 0.22563281655311584 -0.38121113181114197
0.09977006167173386 0.1765488088130951 -0.827330470085144
-0.1995820552110672 0.25082820653915405 0.04022325202822685
-0.005584719590842724 0.25082820653915405 -0.8166912198066711
0.13070856034755707 -0.18953736126422882 -0.846226155757904
0.09268907457590103 0.2917107939720154 -0.6520901322364807
0.042969610542058945 0.25082820653915405 -0.10712429881095886
0.0343131497502327 0.22563281655311584 -0.24559898674488068
0.03801903873682022 0.0032317074947059155 -0.827330470085144
0.1820528507232666 -0.1218930333852768 0.4778686761856079
0.24428409337997437 0.06918337941169739 -0.0985768735408783
-0.23453602194786072 -0.14204783737659454 0.20568548142910004
-0.33454349637031555 0.05239354446530342 -0.7851055264472961
-0.20796719193458557 -0.1218930333852768 0.2703953981399536
-0.24789631366729736 -0.42423903942108154 0.5018629431724548
0.21908867359161377 0.19126121699810028 -0.1779906004667282
-0.18361961841583252 0.25082820653915405 0.34006011486053467
0.02934189885854721 -0.006976868025958538 0.22458204627037048
0.1586090475320816 0.22563281655311584 -0.042026154696941376
-0.052471961826086044 0.14083492755889893 0.3820550739765167
0.10189986228942871 -0.012313888408243656 0.3820550739765167
-0.15697801113128662 -0.4298951327800751 0.31629669666290283
0.0012511550448834896 0.024034962058067322 0.363156795501709
0.21908867359161377 0.2148728221654892 -0.574776291847229
0.24428409337997437 0.12385333329439163 -0.2695479094982147
-0.40987664461135864 0.23264987766742706 0.22979868948459625
0.24428409337997437 -0.3522341549396515 0.2106260359287262
-0.031709495931863785 -0.26391440629959106 0.20568548142910004
0.17210696637630463 0.2917107939720154 -0.739196240901947
-0.3604082763195038 -0.3382035791873932 0.5048583149909973
-0.3317549228668213 0.22563281655311584 -0.23215965926647186
0.019630393013358116 -0.03764539211988449 0.363156795501709
-0.06044837087392807 0.1154557317495346 0.30149638652801514
-0.17487315833568573 -0.2552424967288971 0.6340091228485107
-0.004662930034101009 0.06351841986179352 -0.827330470085144
0.039170682430267334 0.31060734391212463 -0.7088250517845154
0.1693068891763687 -0.08222386986017227 0.20568548142910004
-0.05847206711769104 -0.08527383953332901 0.6151126027107239
-0.3604082763195038 -0.29837921261787415 0.4336107075214386
0.10072000324726105 0.15894845128059387 0.20568548142910004
0.24428409337997437 0.15394042432308197 -0.4576851427555084
0.11994680017232895 -0.23729054629802704 0.20568548142910004
0.15133896470069885 0.09342174977064133 -0.846226155757904
0.1355896145105362 0.22563281655311584 -0.8091858625411987
-0.10947083681821823 0.13435231149196625 0.2517785131931305
-0.20303909480571747 0.25082820653915405 0.16575992107391357
0.06821543723344803 -0.3334316909313202 0.6340091228485107
0.08735169470310211 0.22563281655311584 -0.454913467168808
-0.14771485328674316 0.22019243240356445 0.3820550739765167
-0.08704346418380737 0.22563281655311584 -0.7603318691253662
0.21908867359161377 0.1859273910522461 -0.46697670221328735
-0.2976488173007965 0.25082820653915405 -0.5608211159706116
-0.2241666615009308 0.025997864082455635 0.6151126027107239
0.21908867359161377 0.15621758997440338 -0.31531426310539246
-0.20671185851097107 -0.1218930333852768 0.342589408159256
0.12001338601112366 0.21913686394691467 -0.846226155757904
-0.007670219987630844 -0.000977998017333448 -0.8364205360412598
-0.13549178838729858 -0.08493884652853012 0.6151126027107239
0.04755805432796478 0.1753760576248169 -0.846226155757904
0.21908867359161377 0.21624711155891418 -0.3813363313674927
0.1491425782442093 0.07264664024114609 0.22458204627037048
-0.31290102005004883 0.0493360199034214 0.6340091228485107
-0.25280043482780457 -0.05996551737189293 0.6151126027107239
-0.13595077395439148 -0.3272385001182556 0.20568548142910004
-0.10778936743736267 0.14432393014431 0.3820550739765167
0.13829469680786133 0.16752447187900543 0.363156795501709
-0.2682115435600281 0.22563281655311584 -0.08945779502391815
-0.3604082763195038 -0.4135136604309082 0.2803839147090912
-0.270668089389801 0.22563281655311584 0.3419058322906494
0.21908867359161377 0.2243020236492157 -0.054793693125247955
0.07086726278066635 -0.1218930333852768 0.5204469561576843
0.06592139601707458 0.25082820653915405 -0.6660497188568115
-0.025513818487524986 0.01281777024269104 0.3820550739765167
0.24428409337997437 0.06342165172100067 -0.2515728771686554
0.21908867359161377 0.1993401050567627 -0.002404739148914814
0.24428409337997437 0.05859119072556496 -0.5579118728637695
0.2136731743812561 -0.4902220368385315 -0.827330470085144
0.08407842367887497 -0.09802193939685822 0.22458204627037048
0.20840150117874146 -0.1218930333852768 0.5959408283233643
0.008010590448975563 -0.1218930333852768 0.4912591278553009
-0.007670219987630844 -0.1854233592748642 -0.8391735553741455
0.1324370801448822 0.25082820653915405 -0.3004305064678192
-0.2712353467941284 0.22563281655311584 -0.6874418258666992
-0.10321104526519775 0.25082820653915405 -0.2911868691444397
0.17484135925769806 0.22563281655311584 -0.10640034824609756
-0.19412925839424133 0.07842525839805603 0.6340091228485107
0.20391638576984406 0.22563281655311584 0.11597636342048645
0.22266733646392822 -0.27060654759407043 0.6340091228485107
-0.1683807671070099 -0.14376989006996155 0.6340091228485107
-0.22862067818641663 -0.1218930333852768 0.48236972093582153
-0.0069503141567111015 0.14026673138141632 -0.846226155757904
-0.34868505597114563 0.25082820653915405 -0.6290103197097778
-0.27571603655815125 0.1154557317495346 0.3455590605735779
0.07908550649881363 -0.1218930333852768 0.5990747213363647
-0.20413550734519958 -0.28995853662490845 0.6340091228485107
0.24428409337997437 0.046194128692150116 -0.14634941518306732
-0.0500139445066452 0.22563281655311584 -0.2682739496231079
-0.22429360449314117 0.25082820653915405 -0.8253480195999146
0.24428409337997437 0.17037160694599152 0.15339481830596924
-0.08336322754621506 0.25082820653915405 -0.05444594472646713
-0.07724478095769882 -0.19384756684303284 0.20568548142910004
0.0029275615233927965 -0.11813502758741379 0.6151126027107239
-0.15058062970638275 -0.1218930333852768 0.4913230538368225
0.21908867359161377 0.0981900542974472 0.12678517401218414
-0.1464710533618927 0.12156817317008972 0.363156795501709
-0.05299202725291252 -0.4461877644062042 0.42507460713386536
0.21908867359161377 0.010197020135819912 -0.4962559640407562
0.08242625743150711 -0.48356273770332336 0.43244680762290955
-0.3463386297225952 -0.1196003183722496 0.22458204627037048
-0.05217410996556282 -0.1218930333852768 0.3127419948577881
0.21908867359161377 0.20300577580928802 -0.4162006080150604
0.15752950310707092 -0.23470887541770935 -0.846226155757904
0.21908867359161377 0.21205675601959229 -0.7013756036758423
0.19799663126468658 0.19489939510822296 -0.827330470085144
0.21908867359161377 -0.0427807979285717 0.10968994349241257
-0.2816349267959595 0.25082820653915405 0.27587926387786865
-0.30578890442848206 0.25082820653915405 -0.007252952083945274
-0.10438709706068039 0.22563281655311584 0.3647414743900299
-0.021331792697310448 0.22563281655311584 -0.17828038334846497
-0.0311292614787817 0.22563281655311584 0.03792211040854454
0.12123943120241165 -0.4924379587173462 0.5690754652023315
0.04063810408115387 0.31160789728164673 -0.6320642828941345
0.0330033153295517 0.22563281655311584 -0.18210096657276154
-0.17071297764778137 -0.060567524284124374 0.22458204627037048
-0.11061590164899826 -0.4349137842655182 0.5859754085540771
-0.18186359107494354 -0.07683999091386795 0.6340091228485107
-0.04066421464085579 0.25082820653915405 -0.003516251454129815
0.08845788240432739 -0.2110564410686493 0.6340091228485107
0.21908867359161377 -0.014542059041559696 -0.0005128708435222507
0.24428409337997437 -0.031663745641708374 -0.22820988297462463
-0.22840406000614166 0.22563281655311584 -0.5605974793434143
0.24428409337997437 0.08024521917104721 -0.2975744903087616
-0.04540322348475456 0.22563281655311584 -0.11957624554634094
-0.03830944746732712 -0.44932612776756287 0.592094898223877
0.17563238739967346 -0.33826926350593567 -0.827330470085144
-0.15472659468650818 0.10901574045419693 0.20568548142910004
-0.09276409447193146 -0.1218930333852768 0.5717397332191467
0.21908867359161377 0.0680026188492775 -0.17513184249401093
-0.1294628232717514 0.25082820653915405 0.13122589886188507
0.21908867359161377 0.12662233412265778 -0.21466225385665894
-0.313228577375412 0.012622456066310406 0.3820550739765167
-0.2618488073348999 -0.01924245059490204 0.363156795501709
0.24428409337997437 0.24271827936172485 0.16367629170417786
0.20298776030540466 0.22563281655311584 0.06982918083667755
0.04745755344629288 0.22563281655311584 0.30289819836616516
-0.3470737040042877 -0.1218930333852768 0.5580385327339172
0.09201879799365997 0.22563281655311584 -0.7019909024238586
0.24428409337997437 0.22642560303211212 0.2901824414730072
-0.2233392298221588 -0.1034313216805458 0.20568548142910004
0.20986545085906982 0.25082820653915405 0.14581401646137238
0.24428409337997437 0.18390502035617828 -0.5254899263381958
0.023755673319101334 0.25082820653915405 -0.4006537199020386
0.08114073425531387 -0.48314547538757324 0.2587449848651886
0.20095738768577576 -0.35891032218933105 -0.846226155757904
-0.027423622086644173 -0.10284332931041718 0.6340091228485107
0.24428409337997437 0.18137839436531067 -0.10399436205625534
-0.004682816565036774 -0.03337300196290016 0.6151126027107239
-0.316571980714798 -0.10996374487876892 0.6340091228485107
0.031039169058203697 0.31060734391212463 -0.7719760537147522
0.2014075070619583 0.25082820653915405 -0.509885311126709
0.16572733223438263 -0.12519089877605438 -0.846226155757904
0.15622712671756744 0.23742085695266724 0.3820550739765167
0.09280537068843842 -0.17083647847175598 0.20568548142910004
0.10813212394714355 0.22563281655311584 -0.12417702376842499
-0.03173261135816574 0.13435231149196625 0.28766995668411255
0.1747996211051941 -0.1337699443101883 0.6340091228485107
-0.2629931569099426 -0.1218930333852768 0.5501274466514587
-0.18886113166809082 0.0601608045399189 0.22458204627037048
-0.3227696418762207 -0.10417048633098602 -0.7997841835021973
0.21908867359161377 -0.030638085678219795 -0.5241200923919678
-0.007670219987630844 -0.3599570095539093 -0.8310858011245728
0.2095831334590912 0.05331418290734291 0.20568548142910004
0.24428409337997437 -0.23992638289928436 0.5482808351516724
0.059592537581920624 0.08377327769994736 -0.827330470085144
0.08430835604667664 -0.1218930333852768 0.557285726070404
0.24428409337997437 0.17552964389324188 -0.66800457239151
0.24428409337997437 -0.419659823179245 0.6277875304222107
-0.3202980160713196 0.22563281655311584 -0.09400326013565063
0.20246396958827972 0.25533193349838257 -0.6320642828941345
0.047550950199365616 0.22563281655311584 -0.07784420251846313
-0.33454349637031555 -0.15315157175064087 -0.7699456810951233
0.20277737081050873 0.2527618110179901 -0.827330470085144
-0.08048103004693985 -0.017727617174386978 0.6151126027107239
0.24428409337997437 0.10639677196741104 -0.3686498701572418
-0.08476114273071289 0.25082820653915405 -0.1058671623468399
-0.30965879559516907 0.25082820653915405 0.17156249284744263
0.1460326611995697 0.22563281655311584 0.30916067957878113
-0.3229427635669708 0.12998616695404053 0.20568548142910004
0.022303076460957527 0.22563281655311584 -0.5371003746986389
-0.18902802467346191 0.06463081389665604 0.3820550739765167
-0.26948821544647217 0.22563281655311584 -0.7889292240142822
0.11598460376262665 -0.1218930333852768 0.2871479392051697
-0.32314518094062805 -0.43543049693107605 0.2597189247608185
0.09053885191679001 -0.48619145154953003 0.332425981760025
-0.0006536826840601861 -0.44950631260871887 -0.827330470085144
0.1662333756685257 0.2594042122364044 -0.6509617567062378
0.042109083384275436 -0.1218930333852768 0.6006603240966797
0.24428409337997437 -0.2756313979625702 0.5218797922134399
0.16523905098438263 0.25082820653915405 -0.26459142565727234
0.21908867359161377 0.0633106678724289 -0.4104602038860321
0.24428409337997437 -0.017458438873291016 -0.1004258394241333
-0.07427317649126053 -0.4416387677192688 0.5019046068191528
0.24428409337997437 -0.28923410177230835 0.3734586834907532
0.16798320412635803 -0.2135804146528244 0.20568548142910004
0.24428409337997437 0.07214771211147308 -0.5042469501495361
0.19291670620441437 -0.37691909074783325 0.20568548142910004
-0.07171856611967087 0.22563281655311584 0.2408321052789688
0.24428409337997437 0.21982046961784363 0.13405881822109222
0.24428409337997437 -0.3341534733772278 0.4247789680957794
0.11985625326633453 0.11786165088415146 -0.827330470085144
0.24428409337997437 0.011125647462904453 -0.8185333609580994
0.21908867359161377 0.030092338100075722 -0.3746486008167267
-0.03979373723268509 0.25082820653915405 0.23882657289505005
0.21908867359161377 -0.04619194194674492 -0.05798795074224472
-0.30828893184661865 0.10731473565101624 0.363156795501709
0.2114732265472412 -0.09241152554750443 0.22458204627037048
0.21908867359161377 0.043276868760585785 -0.6527329087257385
-0.3320283889770508 0.25082820653915405 -0.5545178651809692
-0.3172041177749634 -0.42423903942108154 0.43392497301101685
0.11470264196395874 0.25082820653915405 0.34123554825782776
0.23553936183452606 -0.1449456661939621 -0.827330470085144
-0.3273470401763916 -0.38406044244766235 0.6340091228485107
0.0768846869468689 0.25082820653915405 0.35978761315345764
0.21908867359161377 0.1358739733695984 -0.7239112257957458
-0.10846345871686935 -0.4343385100364685 0.20568548142910004
-0.3604082763195038 -0.15497784316539764 0.46194353699684143
-0.15286046266555786 0.13435231149196625 0.2971560060977936
-0.26943138241767883 -0.14550869166851044 0.6340091228485107
-0.14645595848560333 0.22563281655311584 -0.05527620390057564
0.17622986435890198 0.13435231149196625 0.27819642424583435
0.20534129440784454 0.22563281655311584 -0.24827566742897034
0.07045798748731613 0.13129830360412598 -0.827330470085144
-0.3136156499385834 0.07017681747674942 -0.7595407962799072
-0.06432676315307617 0.25082820653915405 0.3364121913909912
0.21908867359161377 0.00994843989610672 -0.32774946093559265
-0.13695575296878815 0.03903768211603165 0.22458204627037048
0.21204940974712372 0.06783127784729004 -0.827330470085144
-0.2919057011604309 -0.19211550056934357 -0.7851969599723816
0.21908867359161377 0.11705996841192245 -0.41646429896354675
-0.342660516500473 0.22563281655311584 0.3533724546432495
0.1511809378862381 0.25082820653915405 0.1518997997045517
0.21908867359161377 0.037923507392406464 -0.05008877068758011
-0.3411068916320801 0.25082820653915405 -0.46307843923568726
0.24428409337997437 0.10366237908601761 0.11038418859243393
0.03220820799469948 0.03841889277100563 -0.827330470085144
0.10446112602949142 -0.45764821767807007 0.20568548142910004
-0.062266651540994644 -0.4121331572532654 0.20568548142910004
-0.1279473751783371 0.25082820653915405 0.3001069724559784
0.24428409337997437 0.015824703499674797 -0.7189014554023743
0.07571280002593994 -0.09147712588310242 0.6151126027107239
0.218351811170578 -0.4924379587173462 0.2791747450828552
-0.2058134227991104 -0.026537219062447548 0.6340091228485107
-0.016089728102087975 0.25082820653915405 -0.5096881985664368
0.21908867359161377 0.024884572252631187 -0.5492062568664551
-0.26760074496269226 -0.2564454674720764 0.20568548142910004
-0.005662577226758003 0.06471426039934158 0.3820550739765167
-0.23124584555625916 0.1744234561920166 0.363156795501709
0.03970503807067871 0.25082820653915405 -0.3494851887226105
-0.15912558138370514 -0.4296625256538391 0.4370109438896179
-0.22815993428230286 0.25082820653915405 -0.2997158169746399
0.17324601113796234 -0.4924379587173462 0.3488314747810364
0.24428409337997437 0.0004840050532948226 0.1476029008626938
-0.1344095766544342 0.25082820653915405 -0.5408797264099121
-0.25930970907211304 -0.08338631689548492 0.6340091228485107
0.06121230870485306 0.25082820653915405 -0.7490870952606201
0.21908867359161377 0.1875733584165573 0.09603666514158249
-0.0621555931866169 0.22563281655311584 0.2818407714366913
0.06351549923419952 0.22563281655311584 0.05723503232002258
0.24382954835891724 0.12556053698062897 0.363156795501709
-0.3922940194606781 0.22563281655311584 -0.31775832176208496
0.24428409337997437 0.2194928526878357 -0.788382351398468
-0.24634268879890442 0.14567247033119202 0.363156795501709
-0.14715109765529633 -0.320025235414505 0.6340091228485107
-0.26105865836143494 0.22563281655311584 -0.4144401550292969
0.021884042769670486 0.13435231149196625 0.3003884255886078
0.24428409337997437 -0.13292503356933594 0.6129579544067383
0.08468034118413925 -0.057095035910606384 -0.846226155757904
-0.19527804851531982 0.25082820653915405 -0.45726701617240906
0.21908867359161377 -0.03818143531680107 -0.8137277960777283
0.03444605693221092 0.25082820653915405 -0.43647679686546326
-0.24046020209789276 -0.2858738303184509 0.6340091228485107
-0.01619732938706875 -0.02205975167453289 0.3820550739765167
-0.25423863530158997 0.25082820653915405 -0.7025146484375
-0.24834023416042328 0.21815942227840424 0.22458204627037048
-0.2909797728061676 -0.42585569620132446 0.239876851439476
0.20015129446983337 0.1154557317495346 0.3458164930343628
-0.3604082763195038 -0.2919453978538513 0.5820798277854919
-0.33108553290367126 -0.42423903942108154 0.4912174344062805
-0.3674333095550537 0.22563281655311584 -0.22896094620227814
0.12617552280426025 0.25082820653915405 -0.6965531706809998
0.12901732325553894 -0.08902500569820404 -0.827330470085144
0.02432829700410366 0.25082820653915405 0.312893807888031
0.08830694854259491 0.25082820653915405 0.10735061764717102
-0.3604082763195038 -0.21502839028835297 0.3529258966445923
-0.021142063662409782 0.25082820653915405 -0.24462328851222992
0.24428409337997437 0.23300409317016602 0.0674659013748169
0.24428409337997437 -0.4726722538471222 0.39806458353996277
0.19021961092948914 0.25082820653915405 -0.46229007840156555
-0.330739289522171 0.22563281655311584 0.07832618802785873
0.17635326087474823 -0.4500878155231476 0.20568548142910004
-0.31388378143310547 0.1780616044998169 -0.8026713132858276
-0.2541205883026123 0.22563281655311584 0.018963409587740898
-0.27886056900024414 -0.42423903942108154 0.36673545837402344
-0.013048169203102589 0.25082820653915405 -0.7565010190010071
0.0731799453496933 0.25082820653915405 -0.601679801940918
0.036410730332136154 0.020754585042595863 0.6151126027107239
0.11285427957773209 0.22563281655311584 0.2855721414089203
-0.16820675134658813 0.25082820653915405 -0.3354998528957367
-0.1617596447467804 0.20290102064609528 0.363156795501709
-0.013204153627157211 0.13065378367900848 0.363156795501709
0.21908867359161377 0.006569525692611933 0.041385360062122345
0.1339978128671646 0.25082820653915405 0.23310568928718567
0.1684892475605011 0.2917107939720154 -0.8190669417381287
0.24428409337997437 0.07512623071670532 0.08259645104408264
-0.2934238016605377 0.22563281655311584 0.3035702407360077
-0.2473689466714859 0.18830224871635437 0.20568548142910004
0.24428409337997437 0.22121073305606842 -0.17603375017642975
0.22185589373111725 0.22563281655311584 0.32350727915763855
-0.3604082763195038 -0.27654406428337097 0.38010111451148987
-0.12847205996513367 0.22563281655311584 -0.6989279985427856
-0.10827498883008957 0.25082820653915405 -0.5008724331855774
0.09380502998828888 -0.17103445529937744 -0.846226155757904
0.23541861772537231 -0.021697532385587692 0.363156795501709
0.034545306116342545 0.1829630732536316 0.20568548142910004
0.24148133397102356 -0.17448227107524872 0.6340091228485107
0.21908867359161377 -0.021858755499124527 -0.277782142162323
