0.18441152572631836,0.13258664309978485,-0.2605103850364685
-0.16799047589302063,-0.3280826807022095,-0.37947598099708557
0.09681631624698639,-0.29555708169937134,0.37310683727264404
0.4731196165084839,0.7040451169013977,0.0389258973300457
0.3165806829929352,0.40865227580070496,-0.14971770346164703
0.4010545015335083,-0.3218911290168762,-0.03116203472018242
0.49962812662124634,-0.5306808352470398,0.047979533672332764
0.17032118141651154,-0.36245307326316833,-0.3922337591648102
0.47829627990722656,-0.6480738520622253,-0.1318790167570114
-0.13745665550231934,0.12132611870765686,0.23704521358013153
0.05166734382510185,0.18032234907150269,0.29160076379776
-0.21590489149093628,0.4294700622558594,-0.28920233249664307
0.03982095792889595,-0.27447372674942017,-0.3836008310317993
0.15043477714061737,-0.5958306789398193,-0.3655288517475128
-0.09972777962684631,-0.7219097018241882,0.42109522223472595
0.1426706612110138,0.45211079716682434,-0.31877630949020386
-0.2225450724363327,-0.45804286003112793,0.41748157143592834
-0.14345377683639526,0.5700738430023193,-0.3902343809604645
0.3036313056945801,0.736423671245575,-0.37348267436027527
-0.39709529280662537,-0.3069632947444916,0.10168638080358505
0.3890886902809143,-0.53874272108078,0.32451996207237244
0.2590336799621582,0.10865931212902069,0.13968652486801147
-0.30077895522117615,-0.7259880900382996,0.2217227965593338
-0.08416759222745895,-0.7626442909240723,-0.35508912801742554
0.10549379140138626,-0.06112099066376686,0.3261418342590332
-0.4996107816696167,-0.5307092666625977,-0.07105766981840134
0.0936901867389679,0.40812110900878906,0.3209973871707916
-0.4814448654651642,-0.48757606744766235,0.03860370069742203
0.19561003148555756,-0.7946444749832153,0.2555639147758484
-0.4000421464443207,-0.45412853360176086,-0.24172799289226532
-0.20624101161956787,0.1459011435508728,-0.20091472566127777
-0.4745523929595947,0.8417437672615051,-0.10569578409194946
-0.2297126054763794,0.18932609260082245,-0.23542167246341705
-0.37657245993614197,0.4843111038208008,0.0894966572523117
0.24331387877464294,0.5835524797439575,0.34352144598960876
-0.42985421419143677,-0.3492979109287262,-0.035035934299230576
0.009306752122938633,-0.6739839315414429,-0.4628021717071533
-0.3943580389022827,0.6348339319229126,0.1942923218011856
-0.21061721444129944,-0.104133740067482,0.2333386093378067
-0.4180164635181427,-0.6307796239852905,0.2843734622001648
-0.3618219792842865,-0.6686478853225708,0.039418525993824005
-0.24366827309131622,0.5035477876663208,0.29160168766975403
0.22607368230819702,-0.48634496331214905,-0.4302765429019928
-0.019901610910892487,0.8417437672615051,0.4932522475719452
0.04738285392522812,-0.6882421374320984,0.3916179835796356
-0.0993872806429863,0.0028780042193830013,-0.2858884036540985
0.3576244115829468,-0.6824129819869995,-0.15510116517543793
0.3258727490901947,0.07237478345632553,-0.014134960249066353
-0.24504922330379486,-0.5958306789398193,0.35646700859069824
-0.21768704056739807,0.29329273104667664,0.22699245810508728
0.45647311210632324,-0.6582726836204529,0.1648501753807068
0.4049137830734253,-0.5958306789398193,0.02994927018880844
0.16224883496761322,0.8417437672615051,0.4315197765827179
0.04544590413570404,0.07567683607339859,-0.2914738953113556
0.44185447692871094,-0.4286253750324249,-0.08154813200235367
-0.10755258798599243,0.6785646677017212,-0.4454348683357239
-0.32732072472572327,-0.11952822655439377,-0.09209749847650528
-0.07191071659326553,0.23564234375953674,-0.2745324671268463
0.44523102045059204,-0.5958306789398193,-0.18292051553726196
-0.007003598380833864,0.34683531522750854,0.33374375104904175
-0.5116230845451355,-0.5884772539138794,0.1617003232240677
-0.11008593440055847,-0.2017219364643097,0.3365587890148163
0.010891254059970379,-0.48805123567581177,0.4871270954608917
-0.2982456088066101,0.3001880347728729,-0.045643340796232224
-0.3944604694843292,-0.7435213923454285,0.09993363171815872
0.3336274027824402,-0.12311530858278275,0.04343355447053909
0.4668331742286682,0.8417437672615051,-0.22318841516971588
-0.22314828634262085,-0.4867698550224304,-0.4278712570667267
0.40068650245666504,0.6674790382385254,0.19634100794792175
0.4263632595539093,0.6026667952537537,-0.046101924031972885
-0.2232545167207718,0.2876673936843872,-0.2313964068889618
-0.31394171714782715,-0.041632939130067825,-0.13905034959316254
0.017749201506376266,-0.7946444749832153,0.3430832624435425
0.45102420449256897,-0.4963427186012268,0.17594337463378906
-0.07990074902772903,-0.6327258944511414,0.49902746081352234
-0.4030914604663849,-0.3882066309452057,0.1826869398355484
-0.26260146498680115,0.2506603002548218,-0.21362316608428955
0.23051626980304718,0.008588224649429321,0.1956808865070343
-0.319414347410202,-0.45422056317329407,0.34747937321662903
-0.33445125818252563,0.8417437672615051,-0.15550142526626587
-0.32745540142059326,-0.13406531512737274,0.008843381889164448
-0.28559598326683044,-0.250862717628479,-0.23334833979606628
0.33248066902160645,0.22443246841430664,-0.017338011413812637
0.17998792231082916,0.631331205368042,-0.38769346475601196
0.29383084177970886,-0.35123178362846375,0.29073479771614075
-0.4963679909706116,0.7753077745437622,0.09106910973787308
-0.023169631138443947,0.546892523765564,0.39068180322647095
-0.11682380735874176,-0.7946444749832153,0.14200930297374725
0.322022020816803,0.6886657476425171,0.33031126856803894
-0.28906258940696716,-0.39699605107307434,0.33838269114494324
-0.3805029094219208,-0.3176078796386719,-0.11334987729787827
-0.29700788855552673,0.8417437672615051,-0.34682992100715637
-0.3568017780780792,-0.6090389490127563,0.3888930380344391
-0.23853236436843872,0.6996233463287354,0.4035714268684387
0.3554126024246216,-0.6995117664337158,0.29658398032188416
0.18011786043643951,0.39806458353996277,-0.28563231229782104
0.042392145842313766,-0.36205849051475525,-0.4316015839576721
0.3121352195739746,-0.054530128836631775,-0.11457813531160355
-0.16726964712142944,-0.13456420600414276,-0.32218602299690247
-0.2934682369232178,0.07900280505418777,0.07264504581689835
0.15368610620498657,-0.7938306927680969,-0.3404335081577301
0.5115740299224854,-0.6254995465278625,0.028710579499602318
-0.011369909159839153,-0.09900730103254318,-0.30757877230644226
-0.26515376567840576,-0.7946444749832153,0.03752804920077324
-0.11125728487968445,-0.5893071293830872,-0.5233121514320374
-0.23531706631183624,-0.6881046891212463,-0.270863801240921
-0.3342444896697998,-0.6908590197563171,-0.2974264323711395
0.4484443962574005,-0.5958306789398193,0.13326069712638855
-0.3217029869556427,-0.07895206660032272,0.10327695310115814
0.22302532196044922,0.28109171986579895,0.18422535061836243
-0.3846685290336609,0.7317155003547668,-0.28869205713272095
-0.2812975347042084,0.6339119672775269,-0.34025707840919495
-0.3423804044723511,0.42072999477386475,-0.1452419012784958
0.1592991054058075,0.7272558808326721,0.45059332251548767
-0.2723715901374817,0.42690351605415344,0.1986600011587143
0.25158730149269104,0.22238095104694366,-0.18451106548309326
0.3028355538845062,0.35934457182884216,0.11229588091373444
-0.4221915900707245,0.6197628378868103,0.08733359724283218
-0.4339534640312195,0.6237606406211853,-0.03575553372502327
-0.2382013350725174,-0.6750339269638062,0.40264761447906494
-0.1535046249628067,0.67247074842453,0.4333834946155548
-0.3509535491466522,-0.7452381253242493,-0.08878348022699356
0.3190286457538605,0.8417437672615051,0.4282807409763336
0.3680480420589447,-0.1813347339630127,0.04807049036026001
0.061900582164525986,0.24299578368663788,-0.30448490381240845
0.5295302867889404,0.8402926325798035,-0.07283641397953033
0.33068808913230896,-0.5945322513580322,0.4211777150630951
0.29737621545791626,-0.5898098349571228,-0.44306182861328125
-0.3431476950645447,0.5886485576629639,-0.23548616468906403
0.37653958797454834,-0.7946444749832153,0.025402342900633812
-0.3499443829059601,-0.4669451415538788,-0.32493847608566284
0.49709194898605347,0.7603030800819397,-0.0020520472899079323
0.2993774712085724,0.8417437672615051,-0.30869415402412415
0.2931469976902008,0.08408191055059433,-0.10684437304735184
0.19106024503707886,-0.7946444749832153,-0.08646515011787415
0.46174943447113037,0.7970712184906006,0.22418880462646484
-0.09689661860466003,0.8417437672615051,0.387909471988678
-0.21145755052566528,0.2037370502948761,0.18566226959228516
0.42764461040496826,0.8417437672615051,0.011265706270933151
0.14203615486621857,-0.6521645784378052,0.37180742621421814
0.01328782644122839,0.8417437672615051,-0.47941353917121887
-0.3032449781894684,-0.6673305034637451,-0.351825475692749
0.21814075112342834,0.4907777011394501,0.2974480092525482
-0.031754348427057266,-0.03905975818634033,-0.33631813526153564
0.29897913336753845,-0.6975551247596741,-0.24201254546642303
0.3428160846233368,-0.1164163276553154,-0.07664903998374939
-0.3385002613067627,-0.6056880354881287,0.14539343118667603
0.4076804518699646,-0.3887301981449127,0.15505540370941162
-0.0724257305264473,-0.7946444749832153,0.37409892678260803
0.3056183457374573,0.4287956953048706,0.14254330098628998
-0.014010617509484291,-0.7175098657608032,0.4411352574825287
-0.11701823770999908,-0.6923831701278687,-0.42853614687919617
-0.0444168895483017,-0.2651389539241791,-0.3741759657859802
-0.030810249969363213,-0.7946444749832153,0.16405631601810455
0.2186756730079651,0.677330732345581,-0.39743703603744507
-0.40192198753356934,-0.5912903547286987,-0.35589152574539185
0.24256744980812073,0.0267545897513628,-0.20978665351867676
0.004918484017252922,-0.25580325722694397,0.3935442864894867
0.3546026051044464,0.6734514832496643,-0.27722322940826416
0.387518972158432,-0.7891452312469482,-0.09080550074577332
-0.28339269757270813,0.8417437672615051,0.27492961287498474
-0.05231539532542229,0.5937265753746033,-0.4207881689071655
0.2860439717769623,0.4630143344402313,-0.20861339569091797
0.42218905687332153,-0.5074131488800049,-0.2599327862262726
-0.2751922905445099,0.46648189425468445,-0.2343195527791977
-0.35389378666877747,-0.21843384206295013,0.06034160032868385
-0.27062925696372986,-0.7885695099830627,0.2610147297382355
-0.3813090920448303,0.478641152381897,-0.0302545465528965
-0.41136300563812256,0.8417437672615051,-0.2585252523422241
-0.2769232392311096,-0.001846564351581037,-0.07755197584629059
-0.1980937123298645,0.5687754154205322,-0.34746161103248596
0.2767765522003174,0.15766340494155884,-0.01652223989367485
-0.39255404472351074,0.5897591710090637,-0.14328427612781525
-0.2772144079208374,-0.6476167440414429,-0.22589057683944702
-0.10138095170259476,0.3302675485610962,-0.31657397747039795
-0.49834173917770386,0.7750735282897949,-0.07455910742282867
-0.21084199845790863,0.26639053225517273,0.26895999908447266
0.34449201822280884,-0.2582322657108307,-0.14545531570911407
-0.25374093651771545,0.774741530418396,-0.439128577709198
-0.20749297738075256,0.36342012882232666,-0.2583744525909424
-0.40849676728248596,-0.5958306789398193,-0.23556964099407196
-0.25822052359580994,-0.012278134003281593,-0.17845799028873444
0.3111953139305115,-0.1806129515171051,0.1661049872636795
-0.17037302255630493,0.8417437672615051,-0.4252535104751587
0.09376131743192673,0.6197893619537354,0.41753658652305603
-0.03921552374958992,-0.38086840510368347,0.4245789051055908
0.12475138157606125,-0.5958306789398193,0.43173980712890625
-0.18376150727272034,-0.7946444749832153,0.23518811166286469
-0.2644120752811432,-0.17602619528770447,0.21469564735889435
-0.097140371799469,0.09474623203277588,-0.29919910430908203
0.022197868674993515,0.6244909167289734,-0.4308750331401825
0.22699274122714996,-0.15445441007614136,-0.25382086634635925
0.3587786853313446,-0.3759259581565857,-0.23519214987754822
0.345502108335495,-0.4472578763961792,0.3137340545654297
-0.36222225427627563,-0.2836548388004303,0.1356024444103241
0.2539869248867035,-0.5958306789398193,0.38157185912132263
-0.29414448142051697,0.03264378011226654,0.1538906842470169
-0.45834317803382874,-0.491036057472229,-0.15795224905014038
0.21814928948879242,0.23618865013122559,-0.25396788120269775
-0.01716690883040428,0.7868790030479431,-0.5104633569717407
-0.4350631535053253,-0.5958306789398193,-0.017386004328727722
-0.2793712317943573,-0.5958306789398193,-0.3932381570339203
0.32531505823135376,0.02073526941239834,-0.06803672760725021
-0.10407552868127823,-0.5456560850143433,0.502063512802124
0.10785451531410217,0.5481065511703491,0.4014468789100647
0.448631227016449,0.7496736645698547,-0.19115789234638214
-0.46018603444099426,0.8417437672615051,0.0065190899185836315
0.28962916135787964,0.0047805290669202805,0.12428160756826401
0.34560930728912354,0.40925168991088867,-0.06142091751098633
0.05417554825544357,-0.5135344862937927,-0.4908652603626251
-0.33051514625549316,-0.16841480135917664,-0.08942671865224838
0.32813674211502075,0.752504825592041,0.3754400610923767
0.38285067677497864,0.8417437672615051,-0.33110442757606506
0.3549867272377014,-0.25208714604377747,0.12524808943271637
0.03872339427471161,-0.7946444749832153,0.10180968791246414
-0.5041918754577637,0.8306306004524231,0.1745576709508896
-0.24589715898036957,-0.14298368990421295,-0.22585643827915192
-0.4027452766895294,-0.3676316738128662,-0.12527868151664734
0.12812979519367218,-0.012739080935716629,0.2544371485710144
0.16632626950740814,-0.40854737162590027,0.42188718914985657
0.254427969455719,-0.3699240982532501,-0.355888694524765
0.49660536646842957,-0.5620521306991577,-0.15417641401290894
0.33787932991981506,0.5060868263244629,0.2039761245250702
-0.3703809082508087,-0.5958306789398193,0.23868508636951447
0.22844673693180084,-0.22593902051448822,0.2788742780685425
-0.26919612288475037,-0.2999427914619446,0.28175854682922363
-0.17201197147369385,0.8417437672615051,0.44030535221099854
-0.1398439258337021,0.12991870939731598,-0.2394573837518692
0.1178257018327713,0.7944040894508362,-0.5007340312004089
-0.2145305722951889,0.06007162109017372,-0.2268030047416687
0.17738817632198334,0.33136776089668274,-0.28287607431411743
-0.36491018533706665,-0.7476130723953247,0.18117225170135498
0.2795982360839844,-0.39043933153152466,0.34984010457992554
0.19318385422229767,-0.05521775409579277,0.2339038997888565
-0.14714327454566956,-0.36645272374153137,0.41558748483657837
-0.39684584736824036,-0.44986048340797424,0.25132524967193604
0.47737911343574524,0.8417437672615051,0.0941036194562912
-0.34719952940940857,0.3752531111240387,-0.07973543554544449
0.16535978019237518,-0.07966531068086624,-0.3014678359031677
-0.20243673026561737,-0.5433655381202698,0.4687478542327881
0.5316728353500366,-0.5897311568260193,-0.038126591593027115
-0.1611359417438507,-0.02849910967051983,0.250506728887558
0.05854387953877449,-0.5958306789398193,-0.441562294960022
-0.02009746804833412,-0.1843489557504654,-0.3579307198524475
0.3808702826499939,0.5309972167015076,0.02439393848180771
0.28385210037231445,0.2610155940055847,-0.1372179090976715
0.39201849699020386,-0.763274073600769,0.06938091665506363
-0.4461497366428375,0.7799789905548096,-0.2455863505601883
-0.28856372833251953,0.2909158766269684,-0.11604255437850952
0.15342147648334503,-0.5121250748634338,-0.46967944502830505
-0.28002849221229553,0.5917699337005615,0.30018526315689087
0.4203471541404724,-0.35506168007850647,-0.08505507558584213
-0.11592750996351242,-0.2799966037273407,-0.3913459777832031
-0.3660663664340973,0.7328536510467529,0.326208233833313
0.25325945019721985,-0.5997544527053833,-0.2832896113395691
0.33100301027297974,0.8417437672615051,0.30541983246803284
-0.14604023098945618,-0.2648923695087433,0.35018154978752136
-0.3244876563549042,0.22383399307727814,-0.07075700163841248
-0.24195154011249542,0.2664076089859009,0.1594657450914383
0.0008633159450255334,0.6262769103050232,0.428958922624588
-0.14309430122375488,0.43025633692741394,0.3269755244255066
0.24739035964012146,0.020244063809514046,0.14130650460720062
0.14731718599796295,0.1619468629360199,0.2868603467941284
0.29473569989204407,0.2818220257759094,0.0445902980864048
0.3311215341091156,-0.04713781550526619,0.0637407898902893
-0.18950064480304718,0.7814860939979553,-0.46914735436439514
-0.3585734963417053,0.5894784331321716,0.23842330276966095
-0.3833008408546448,-0.28608381748199463,0.015462556853890419
0.27991122007369995,0.15219484269618988,0.04572485014796257
0.04392106458544731,0.34720614552497864,-0.32254835963249207
0.06745990365743637,0.242152601480484,0.28243952989578247
-0.0741109549999237,0.28155645728111267,0.2975931465625763
-0.3095133602619171,0.09992767870426178,0.11134552955627441
0.20148764550685883,0.1286100298166275,0.25738590955734253
-0.17699232697486877,0.48072776198387146,-0.3459545075893402
0.4859939515590668,-0.5921705961227417,0.22112053632736206
-0.534047544002533,-0.590670108795166,0.0478367917239666
0.28873854875564575,0.5056182742118835,0.2476973980665207
-0.08636166900396347,-0.04463671147823334,0.3029756546020508
-0.1891867071390152,-0.26269951462745667,-0.3425542414188385
0.3168177604675293,0.6817552447319031,-0.3277003765106201
-0.24386650323867798,0.0192230436950922,0.1669614464044571
-0.18452881276607513,-0.1603063941001892,0.2733807861804962
0.04389156401157379,0.7686182856559753,0.4976000189781189
-0.28335097432136536,0.8417437672615051,0.35729122161865234
0.005248549394309521,0.1851775199174881,-0.3298230469226837
-0.1663164496421814,-0.5958306789398193,-0.4269920289516449
-0.2610156238079071,-0.7946444749832153,-0.06448017805814743
0.08699841052293777,-0.7946444749832153,0.30766579508781433
-0.4214489459991455,-0.6842994093894958,-0.16090385615825653
-0.17687757313251495,0.17190001904964447,0.21516229212284088
0.22444991767406464,-0.7455112338066101,0.331942617893219
0.43078118562698364,-0.4281255006790161,-0.16368475556373596
-0.3319093883037567,0.3294338881969452,0.01602793298661709
-0.10893165320158005,-0.6347318291664124,-0.3448314964771271
0.09864021092653275,-0.6262080669403076,0.502628743648529
0.3757125437259674,-0.528959333896637,-0.3330364525318146
-0.2409547120332718,0.3509924113750458,0.235449880361557
0.38182634115219116,-0.5958306789398193,0.2945997714996338
-0.1949789673089981,-0.7946444749832153,-0.2937767505645752
0.21291092038154602,0.16061142086982727,0.17510494589805603
-0.005542644299566746,0.09293513745069504,0.2913389801979065
-0.06214563921093941,-0.4150509536266327,-0.4429774284362793
-0.023087969049811363,-0.7946444749832153,0.060174666345119476
-0.10109926015138626,0.17047637701034546,-0.25428277254104614
0.11607863008975983,-0.009314185939729214,-0.3112654387950897
0.26828497648239136,0.17273181676864624,-0.12293597310781479
-0.35685867071151733,0.8417437672615051,0.3161639869213104
0.2940139174461365,-0.7946444749832153,0.04555203765630722
-0.09210887551307678,0.5772110819816589,0.3917384147644043
0.41795986890792847,-0.3596029281616211,0.03074588254094124
-0.27413854002952576,0.267141729593277,0.09579169750213623
0.10351815074682236,0.6250799298286438,-0.4142257571220398
-0.020422030240297318,-0.5958306789398193,-0.4477273225784302
-0.4835495352745056,-0.5136445760726929,0.12598788738250732
0.11241187900304794,-0.312319278717041,-0.4019763469696045
-0.20515501499176025,-0.7946444749832153,-0.2142946869134903
-0.24754935503005981,-0.4032217264175415,-0.3709597587585449
-0.00048395548947155476,-0.028851838782429695,0.30788299441337585
0.0009558193851262331,0.04387907311320305,-0.329448401927948
-0.4241928458213806,-0.5958306789398193,-0.1533939391374588
0.4365573227405548,-0.7003066539764404,-0.11311750113964081
0.07927318662405014,0.10790272802114487,-0.2596321105957031
-0.33485719561576843,0.8387029767036438,-0.41861239075660706
-0.27877748012542725,0.17130059003829956,-0.17295882105827332
0.31513333320617676,0.8417437672615051,-0.4145102798938751
0.17471539974212646,-0.10668700188398361,0.305731862783432
0.10182894021272659,0.16551877558231354,-0.3084058463573456
-0.03179077059030533,0.7016805410385132,0.4726203978061676
0.42119887471199036,0.8417437672615051,0.30282387137413025
0.3420241177082062,0.5843406319618225,-0.24480955302715302
0.16319727897644043,0.8417437672615051,-0.4729668200016022
0.2694184184074402,-0.25580039620399475,0.24756363034248352
0.4288378059864044,-0.5250924825668335,0.2611067295074463
-0.29591619968414307,0.03363236412405968,0.03726086765527725
-0.45207762718200684,-0.529685914516449,-0.22535090148448944
0.1133546531200409,0.5241900682449341,-0.36026298999786377
-0.22178345918655396,0.7660185694694519,0.44770336151123047
-0.13068652153015137,0.7175938487052917,0.4599432647228241
-0.473160982131958,0.7821727395057678,0.18393513560295105
0.1253441721200943,0.10753301531076431,0.23988394439220428
0.19808551669120789,0.504877507686615,-0.3138357698917389
0.233452707529068,0.7538668513298035,-0.43419182300567627
0.39029040932655334,-0.7433639764785767,0.17531739175319672
-0.1810489147901535,-0.7160700559616089,0.3984667956829071
-0.06662949174642563,-0.7946444749832153,-0.31133753061294556
0.21751001477241516,0.08032457530498505,-0.17251873016357422
0.2799311578273773,0.3352583944797516,-0.1299593299627304
0.09923015534877777,-0.7586199641227722,0.40955623984336853
0.30693671107292175,-0.2723643481731415,-0.2202880084514618
-0.35562852025032043,0.8417437672615051,0.12200150638818741
0.23786306381225586,-0.7506443858146667,-0.3357604146003723
0.36452069878578186,0.8417437672615051,-0.14844770729541779
0.10570435971021652,-0.16370567679405212,-0.31215983629226685
-0.27026599645614624,0.08049909770488739,-0.0905660092830658
0.03150323033332825,-0.039622195065021515,-0.2902636229991913
-0.30056747794151306,0.12866626679897308,-0.11381746828556061
0.17639417946338654,-0.7946444749832153,0.07949493825435638
-0.441529780626297,-0.438294917345047,0.1463826596736908
0.33539438247680664,-0.17874827980995178,-0.10001734644174576
0.1233002319931984,-0.22263458371162415,0.3384206295013428
0.09027326107025146,-0.7403298616409302,-0.3956908881664276
0.36644983291625977,-0.24856553971767426,0.045018624514341354
-0.22164972126483917,0.8417437672615051,-0.3316497802734375
-0.05876579135656357,-0.21857327222824097,0.34630802273750305
-0.07580263167619705,-0.7946444749832153,-0.07744470983743668
0.0868586003780365,0.15539610385894775,0.26142069697380066
0.17040559649467468,-0.5963106155395508,0.5097005367279053
-0.14715467393398285,0.3756363093852997,-0.2954925298690796
-0.45960935950279236,-0.44336825609207153,-0.0285759586840868
-0.3451043963432312,0.35419729351997375,0.09376084804534912
0.2339497059583664,-0.6736927628517151,0.414081335067749
-0.3640318810939789,0.5502159595489502,-0.2031426727771759
-0.21054038405418396,0.6261962652206421,-0.3753700852394104
-0.1046370193362236,-0.15487834811210632,-0.32454487681388855
-0.058851245790719986,-0.7015538811683655,0.38561418652534485
-0.00590832345187664,0.1791273057460785,0.32447537779808044
-0.47618186473846436,-0.5899986028671265,0.2493230551481247
-0.3981841206550598,-0.5329505205154419,-0.3111620545387268
0.3484167456626892,0.47445088624954224,-0.11319337785243988
-0.5324749946594238,0.8417437672615051,0.07861324399709702
-0.07684698700904846,0.3828294575214386,0.34009087085723877
0.15848058462142944,0.04453853890299797,0.26407259702682495
0.42465412616729736,0.6517431139945984,-0.11659741401672363
-0.20799660682678223,0.10946883261203766,0.2523391544818878
-0.32114720344543457,0.15068092942237854,0.05588686466217041
0.2558867037296295,0.16055545210838318,0.11300912499427795
0.2274584323167801,-0.5958306789398193,-0.3576917052268982
0.35607463121414185,0.6441032290458679,0.27242380380630493
0.30086180567741394,-0.15315310657024384,-0.14867344498634338
0.1278386265039444,-0.6814616322517395,-0.35113972425460815
0.3479529619216919,-0.45717504620552063,-0.3081820011138916
-0.47867444157600403,0.7599218487739563,-0.15801863372325897
0.3225958049297333,-0.11981561034917831,-0.023236023262143135
-0.36089247465133667,-0.7332960367202759,-0.019936230033636093
0.38683798909187317,0.5521214008331299,-0.07316078990697861
0.24392467737197876,0.8417437672615051,0.40981990098953247
0.10652288049459457,-0.22465099394321442,-0.3512905240058899
-0.173181414604187,0.00011580025602597743,-0.25265809893608093
-0.18010708689689636,0.8417437672615051,-0.47928836941719055
0.5020751357078552,-0.5179761648178101,-0.02097764052450657
-0.2677677273750305,0.0850725769996643,0.18180109560489655
-0.29553869366645813,-0.12741847336292267,0.16020271182060242
-0.4018044173717499,0.5534132122993469,0.11147167533636093
-0.0767916887998581,0.5116732716560364,-0.3646828234195709
-0.1669044941663742,0.6045504808425903,0.3961630165576935
0.02464480698108673,0.42180269956588745,0.3352527618408203
-0.09978847950696945,0.8417437672615051,0.47764530777931213
-0.12034639716148376,0.13643094897270203,0.30711281299591064
0.0883268192410469,-0.7946444749832153,-0.17157214879989624
0.11093417555093765,0.27973541617393494,-0.31250888109207153
0.27603772282600403,-0.26692113280296326,-0.28752070665359497
-0.34640851616859436,0.46360617876052856,0.15559223294258118
0.14518220722675323,0.2956373393535614,0.3102816641330719
-0.23017069697380066,-0.2964211404323578,-0.3183267414569855
-0.27970603108406067,0.703421950340271,-0.37267741560935974
-0.1764555126428604,0.027535932138562202,0.28000104427337646
-0.39452874660491943,-0.40091416239738464,-0.20367096364498138
-0.33641740679740906,0.6693740487098694,-0.2985721826553345
0.3862423598766327,0.5931594371795654,0.18188075721263885
0.008303564973175526,-0.7398869395256042,-0.40581953525543213
0.22923584282398224,-0.6728097200393677,0.32827016711235046
0.20241808891296387,-0.7946444749832153,0.17692504823207855
-0.04190441220998764,0.4245617687702179,-0.37301886081695557
0.27446991205215454,-0.1232006773352623,0.20225560665130615
0.23169711232185364,-0.7946444749832153,-0.1533825546503067
-0.2994653284549713,-0.5958306789398193,0.38930562138557434
0.03017471916973591,0.4843139052391052,-0.35874831676483154
0.10898223519325256,0.8417437672615051,0.4181312620639801
0.19660212099552155,-0.35841354727745056,0.36627694964408875
-0.21611450612545013,-0.025654762983322144,0.22238008677959442
0.27477627992630005,0.5692894458770752,0.29038766026496887
-0.24740520119667053,-0.4142846167087555,0.3698602318763733
-0.17802046239376068,-0.39740103483200073,-0.39649805426597595
-0.28213125467300415,-0.7243197560310364,-0.21948277950286865
-0.015386929735541344,0.12036874145269394,-0.2906752824783325
0.3905569016933441,0.7824743390083313,0.320748895406723
-0.06558362394571304,0.49212446808815,0.36767593026161194
-0.5027141571044922,0.7622151970863342,-0.00904462207108736
-0.320156991481781,-0.41528716683387756,-0.3140946924686432
-0.2249257117509842,0.48422759771347046,-0.2864622175693512
0.2821638286113739,0.010636049322783947,0.002346805762499571
0.010251990519464016,-0.7946444749832153,0.28058624267578125
0.22080402076244354,0.39013639092445374,-0.23566731810569763
0.2091389000415802,-0.4231679439544678,-0.4020569622516632
0.352725625038147,0.4696706235408783,0.053784407675266266
0.1605396866798401,0.8417437672615051,-0.40725550055503845
-0.3264111578464508,-0.7333528995513916,-0.14803512394428253
-0.03930695354938507,0.8417437672615051,-0.37090757489204407
-0.34443002939224243,0.8417437672615051,-0.29728323221206665
0.14554166793823242,-0.730505645275116,0.40740320086479187
0.22398421168327332,0.39728400111198425,0.25751206278800964
-0.3335539996623993,0.01745065115392208,-0.0179436057806015
0.4649467170238495,-0.5599057674407959,-0.22770214080810547
0.2399572730064392,0.11444607377052307,-0.1405584067106247
-0.29358774423599243,0.4718160629272461,0.24423928558826447
0.44219499826431274,-0.44825947284698486,0.132227823138237
-0.4206550717353821,-0.5958306789398193,0.19353830814361572
-0.02213258296251297,-0.6093671321868896,-0.3639003336429596
0.36868348717689514,-0.5958306789398193,0.1712845414876938
-0.2337435632944107,0.8417437672615051,0.4383467733860016
0.22561462223529816,-0.040862783789634705,-0.18650569021701813
-0.1454332023859024,-0.4877297282218933,0.46119239926338196
0.4398532211780548,0.7260579466819763,0.18100722134113312
0.2776918411254883,0.3904806673526764,0.20274312794208527
0.28582772612571716,-0.504155158996582,-0.39604657888412476
0.37946560978889465,0.5933642983436584,-0.17382854223251343
0.10722284018993378,-0.7946444749832153,-0.05809001252055168
0.4732893705368042,0.8417437672615051,0.15537883341312408
0.2733905613422394,0.0313979797065258,0.05680146440863609
-0.3064972460269928,0.6557313799858093,0.321601539850235
-0.2629258334636688,-0.7225015759468079,0.2710523009300232
0.3103407323360443,-0.3975015878677368,-0.3064652681350708
-0.16688363254070282,0.3365141451358795,0.25762683153152466
0.28089478611946106,0.2964501678943634,0.19502833485603333
0.4178498685359955,0.598015546798706,0.039538316428661346
0.2460075169801712,-0.31212955713272095,-0.31772446632385254
-0.3644947409629822,0.7496234178543091,-0.3302081227302551
0.13432514667510986,0.574275553226471,-0.3836482763290405
-0.02977026253938675,-0.7946444749832153,-0.0194822009652853
-0.4047550559043884,-0.7332884073257446,-0.05731644481420517
-0.27890267968177795,0.21504366397857666,0.06545987725257874
0.3231421113014221,0.3489721715450287,0.04781137406826019
0.17329935729503632,0.058593351393938065,-0.21445593237876892
0.06614609062671661,-0.5409023761749268,0.5041690468788147
0.46687111258506775,-0.456084281206131,0.0010090322466567159
-0.04211563616991043,-0.7946444749832153,-0.1624356359243393
-0.31689712405204773,-0.6613921523094177,0.36798325181007385
0.1237298771739006,-0.5958306789398193,-0.43687596917152405
0.10922124981880188,-0.7946444749832153,-0.24555030465126038
0.07828032970428467,0.023682523518800735,0.2673627734184265
0.028309756889939308,-0.4585607051849365,-0.46557262539863586
-0.4753984212875366,-0.638390064239502,0.1594666987657547
-0.3765297830104828,0.49116942286491394,-0.12533274292945862
-0.271414577960968,0.20863394439220428,0.17572523653507233
0.390699177980423,-0.6008821725845337,0.3642415702342987
-0.3996599316596985,-0.6375734210014343,-0.29156115651130676
-0.3679196536540985,-0.16359473764896393,-0.036582496017217636
-0.22213533520698547,-0.5958306789398193,-0.3873046040534973
0.47339940071105957,0.8417437672615051,-0.12346711754798889
0.19250570237636566,-0.504948079586029,0.45006313920021057
-0.06665007025003433,-0.12867330014705658,0.3222332000732422
-0.42028898000717163,0.6327909231185913,-0.10324970632791519
0.1807485818862915,0.5716208219528198,0.36085742712020874
-0.5088573098182678,0.8077176809310913,-0.12412630021572113
0.26672664284706116,-0.5423582792282104,0.44027596712112427
-0.022894766181707382,-0.5437524914741516,0.5117567777633667
-0.4443979263305664,-0.6900528073310852,-0.03185763955116272
-0.2372083067893982,0.11707587540149689,-0.14593806862831116
-0.23769675195217133,-0.07788410782814026,-0.2074885219335556
0.2549837529659271,-0.47647717595100403,0.4082340598106384
-0.28923049569129944,-0.2886466085910797,-0.2895086705684662
-0.28647521138191223,0.1412106156349182,-0.049840763211250305
-0.13190814852714539,-0.05112703889608383,-0.27397382259368896
-0.4325193762779236,0.8397254347801208,0.3187561631202698
0.16886718571186066,0.7924919724464417,0.48317578434944153
-0.1839388757944107,-0.7946444749832153,0.17076857388019562
-0.04956836625933647,0.36718836426734924,-0.32991883158683777
-0.3858560025691986,0.6832017302513123,0.24649474024772644
-0.08695977181196213,0.1950680911540985,-0.32044368982315063
0.19495558738708496,0.2922133803367615,-0.22842203080654144
-0.15616506338119507,-0.19583767652511597,-0.311997652053833
-0.4088808596134186,-0.36692506074905396,0.11138251423835754
-0.2758704423904419,-0.7858683466911316,-0.22764049470424652
-0.2573564648628235,0.39569246768951416,-0.2258090227842331
0.02915303409099579,-0.3971250355243683,0.44206568598747253
0.1814134418964386,0.1857978254556656,-0.22282609343528748
-0.5140861868858337,-0.5729784369468689,-0.12871116399765015
-0.17283521592617035,-0.6225014328956604,-0.48037436604499817
-0.1290769875049591,-0.5260684490203857,-0.4879534840583801
-0.24036478996276855,0.12676526606082916,0.13707445561885834
-0.46902474761009216,0.7137544751167297,-0.054098598659038544
0.428632915019989,0.6269559860229492,0.006692307535558939
0.2929355204105377,-0.7946444749832153,-0.15351060032844543
-0.21619416773319244,0.5561191439628601,0.33243298530578613
0.28867217898368835,0.3910137116909027,-0.20804716646671295
0.05225975066423416,0.680301308631897,-0.44980064034461975
0.31695812940597534,-0.5958306789398193,-0.33665764331817627
-0.22674107551574707,0.19597293436527252,-0.15808218717575073
-0.4323382079601288,0.693917453289032,0.1888386607170105
-0.31977003812789917,-0.3081516921520233,-0.24449938535690308
0.30982479453086853,0.1544414907693863,0.10910051316022873
-0.3736189603805542,0.42270374298095703,0.03952665254473686
0.0902797058224678,-0.6850335597991943,0.454152911901474
0.2834423780441284,0.6381393074989319,0.3376334011554718
-0.3534432649612427,-0.5958306789398193,0.3071868121623993
0.11171191185712814,-0.35531872510910034,0.4012913107872009
-0.06294386088848114,0.05310846120119095,-0.30012384057044983
0.17090259492397308,-0.032481227070093155,-0.23835906386375427
0.4652425944805145,-0.49325355887413025,-0.16017070412635803
-0.2575508952140808,-0.719967246055603,-0.3377227783203125
-0.3719686269760132,0.562423586845398,0.16190898418426514
0.08779872208833694,-0.11166074126958847,0.34655559062957764
0.38922053575515747,0.5817883610725403,0.11416815221309662
0.17576155066490173,0.311262309551239,0.25758981704711914
-0.18272389471530914,0.46767792105674744,0.3226287066936493
0.21804779767990112,0.06834094971418381,0.17363102734088898
-0.30350008606910706,0.3540180027484894,-0.11444535106420517
0.4057047963142395,-0.6606371402740479,0.2652277946472168
0.45780760049819946,0.8417437672615051,0.2633650302886963
0.5159540176391602,-0.5953630805015564,0.1531110554933548
-0.45277664065361023,-0.4447188377380371,0.08642847836017609
0.20436528325080872,0.6654142141342163,0.4039214253425598
-0.31270208954811096,-0.07042349129915237,0.024613412097096443
-0.2817755937576294,-0.5491530895233154,-0.4308760166168213
0.26856762170791626,-0.12736064195632935,-0.2032223343849182
-0.34401175379753113,0.7788540720939636,0.37313908338546753
-0.11548742651939392,-0.3653468191623688,-0.40584132075309753
0.3275202512741089,-0.4872640073299408,0.3536301851272583
0.3180156946182251,-0.5958306789398193,0.3533826172351837
0.15831366181373596,-0.7946444749832153,-0.2758716642856598
0.35937243700027466,0.7403569221496582,-0.3332782983779907
-0.05152001604437828,-0.5592807531356812,-0.5155016183853149
0.26748543977737427,-0.03659186512231827,-0.1478738784790039
0.34993523359298706,-0.39285507798194885,0.27484142780303955
-0.4341469705104828,-0.7056426405906677,0.03562581539154053
0.3846375644207001,-0.3851516544818878,0.19973555207252502
0.2835542857646942,0.2523912489414215,-0.011914515867829323
0.025229722261428833,0.8361639380455017,0.5353175401687622
-0.3930775821208954,0.8417437672615051,-0.09259942173957825
0.11193195730447769,0.24004794657230377,0.3153720200061798
-0.3522852063179016,-0.43606606125831604,0.2892049252986908
0.02750185877084732,-0.23146003484725952,0.36357760429382324
-0.19696788489818573,-0.5958306789398193,0.39044660329818726
-0.49907681345939636,-0.5958306789398193,-0.0651671513915062
0.4157727062702179,0.8417437672615051,-0.2698916494846344
-0.33444082736968994,-0.5846995115280151,-0.41365382075309753
0.1967330127954483,-0.5958306789398193,0.43683966994285583
-0.298662006855011,-0.21762195229530334,-0.20163744688034058
-0.15219005942344666,-0.7420067191123962,0.3534603714942932
0.0610777921974659,-0.5958306789398193,0.42656785249710083
0.16101107001304626,0.7546787261962891,-0.4646535813808441
-0.027339261025190353,-0.3022124469280243,0.40618160367012024
-0.26815375685691833,-0.5088633894920349,0.4156387150287628
0.13694480061531067,-0.7946444749832153,-0.1227908581495285
-0.31477540731430054,0.2727755904197693,0.13286897540092468
0.3801465928554535,-0.274840772151947,-0.05891764163970947
-0.12298880517482758,0.19460523128509521,0.26912882924079895
0.24326644837856293,0.21564024686813354,0.15037475526332855
0.3132658004760742,0.29057443141937256,0.10294689238071442
-0.13148987293243408,0.22708532214164734,-0.2574753165245056
0.22610117495059967,-0.09850462526082993,0.2145201712846756
0.18475867807865143,-0.2068825364112854,0.3141864538192749
-0.3286011517047882,-0.058614201843738556,-0.07493213564157486
-0.22184225916862488,-0.7499671578407288,0.35247209668159485
-0.01100385095924139,0.789713978767395,0.5158399343490601
0.35266396403312683,0.4537450075149536,0.11646342277526855
0.1428651064634323,0.44658219814300537,0.3419024348258972
0.2578594982624054,-0.20904313027858734,-0.25313135981559753
0.09782642871141434,-0.669866681098938,-0.4636368155479431
-0.26246678829193115,-0.2243569791316986,0.2707620859146118
-0.29546377062797546,-0.6469290256500244,0.22865036129951477
-0.2067626565694809,-0.6802210211753845,0.31931859254837036
0.3027445077896118,-0.11514253169298172,0.08133324980735779
0.5228569507598877,-0.5876957178115845,-0.0970202088356018
-0.36420169472694397,-0.4051992893218994,-0.267408549785614
0.2875843048095703,0.792669415473938,-0.4224887490272522
-0.1293691098690033,0.478056937456131,0.36872968077659607
-0.41266995668411255,0.6457156538963318,0.14542187750339508
-0.23588423430919647,0.193093404173851,0.2339939922094345
0.29388776421546936,-0.04844289273023605,-0.05045783147215843
-0.043881289660930634,-0.08079303801059723,0.30846911668777466
0.07307536154985428,0.4514070153236389,0.3650515377521515
-0.016921447589993477,0.27565985918045044,0.3194561302661896
0.3227475881576538,-0.6930471062660217,0.2375820428133011
-0.22460323572158813,-0.6344947218894958,0.4537659287452698
-0.3914794325828552,-0.2947413921356201,-0.053895436227321625
-0.346817284822464,-0.7842824459075928,0.12531353533267975
0.47299817204475403,-0.4657690227031708,0.08154712617397308
0.20211932063102722,0.25117626786231995,0.22440600395202637
0.29863861203193665,0.20033490657806396,0.05498402193188667
0.05695682018995285,-0.6369389295578003,-0.4929945766925812
-0.035376813262701035,0.2595142126083374,-0.3273636996746063
0.40388092398643494,-0.731298565864563,-0.1620733141899109
0.03702631592750549,-0.09945971518754959,-0.3229447901248932
0.00983248557895422,0.05261782184243202,0.308374285697937
-0.12824803590774536,0.6278977990150452,-0.4084790050983429
0.0525510236620903,0.10468649119138718,0.27566373348236084
-0.1757669299840927,-0.4244891107082367,0.4155941307544708
-0.12136977910995483,-0.016307294368743896,0.3087906539440155
-0.5321601033210754,0.8389277458190918,-0.07087764889001846
0.27098527550697327,-0.05022316053509712,0.11189372837543488
-0.2995440661907196,-0.3543550968170166,0.2884689271450043
0.38826069235801697,0.6931614875793457,0.26106977462768555
0.3094102740287781,0.36349597573280334,-0.069696344435215
0.38933053612709045,-0.5958306789398193,-0.3124813735485077
-0.30680835247039795,-0.7878752946853638,0.22102758288383484
0.016755498945713043,0.8417437672615051,-0.5298091769218445
-0.35639867186546326,-0.2559654116630554,-0.1823485791683197
-0.42395761609077454,0.7844566702842712,0.28292515873908997
-0.20360048115253448,0.10108717530965805,0.1857115924358368
-0.3174586296081543,-0.15062734484672546,-0.14350906014442444
0.2630371153354645,0.11686445772647858,-0.065085768699646
0.1636810004711151,0.18794892728328705,-0.2829377353191376
0.3798629939556122,-0.5958306789398193,-0.10553549230098724
0.23593010008335114,0.7431018352508545,0.4303815960884094
0.3317863941192627,-0.3241114914417267,0.24392060935497284
-0.35852038860321045,-0.6817024946212769,-0.03795814514160156
0.032725606113672256,-0.3130192160606384,-0.4081328213214874
-0.30917853116989136,0.5458472967147827,-0.2596093416213989
0.15295769274234772,0.15826398134231567,0.22941294312477112
0.33568647503852844,0.5320973992347717,-0.21559028327465057
-0.2528645694255829,0.3411521315574646,-0.21855992078781128
-0.09246464818716049,0.7267294526100159,-0.47866618633270264
0.07374583184719086,0.8417437672615051,-0.4354570508003235
0.44840550422668457,-0.7113078236579895,-0.03193332627415657
0.3310428261756897,-0.5612156391143799,-0.39857611060142517
0.38227590918540955,-0.6389610171318054,0.12213333696126938
0.211417093873024,0.027133405208587646,0.24458739161491394
0.25171253085136414,-0.5586870312690735,-0.4577971398830414
0.20648887753486633,0.20974934101104736,-0.18864920735359192
-0.2655900716781616,-0.11651969701051712,0.2068784236907959
-0.5071937441825867,-0.5275755524635315,-0.0010314169339835644
-0.18987813591957092,-0.5384449362754822,-0.4705994725227356
-0.436808317899704,-0.6527583003044128,-0.21600666642189026
-0.3289065659046173,-0.6659551858901978,0.1685548573732376
-0.20014429092407227,-0.005537792108952999,-0.2068653702735901
-0.005127815064042807,-0.43328988552093506,0.456432044506073
0.4343455135822296,0.6748466491699219,0.14040546119213104
-0.3208474814891815,0.09291218221187592,-0.06266064941883087
0.14392928779125214,-0.7946444749832153,0.3019181191921234
0.22836042940616608,-0.1892031878232956,-0.2975146472454071
0.08461880683898926,-0.5958306789398193,-0.38263532519340515
-0.34570762515068054,-0.13981109857559204,0.07466726750135422
-0.3214402496814728,0.08560191839933395,0.025252865627408028
-0.5028469562530518,-0.5396172404289246,0.08239741623401642
0.1855582296848297,0.3517037630081177,0.28863394260406494
0.26995521783828735,-0.6017652153968811,0.46338048577308655
0.04886890575289726,-0.7131212949752808,-0.429691344499588
-0.17635971307754517,-0.1110432893037796,-0.2650734484195709
-0.23813875019550323,-0.6216449737548828,-0.26869845390319824
-0.29251691699028015,0.15805625915527344,0.13861477375030518
-0.07515578716993332,-0.7946444749832153,0.08909982442855835
-0.029147787019610405,-0.7645924091339111,-0.3629775047302246
-0.3862648010253906,-0.33796757459640503,0.16834241151809692
-0.013304203748703003,-0.1876363307237625,0.34780848026275635
-0.4293297231197357,0.6021811962127686,0.027914438396692276
-0.11875772476196289,-0.7946444749832153,0.3360845446586609
0.28048598766326904,0.5052834153175354,-0.2577921152114868
0.15710246562957764,-0.2814306914806366,0.3567439615726471
-0.06591283529996872,-0.13764764368534088,-0.35074612498283386
-0.27451035380363464,0.3771718740463257,0.16442051529884338
-0.04706091433763504,0.11521802842617035,0.3237725794315338
-0.14541329443454742,0.24260880053043365,0.3049048185348511
0.43095663189888,0.8417437672615051,0.17846818268299103
0.058370500802993774,-0.2148951143026352,-0.3777943551540375
-0.31037646532058716,-0.19680890440940857,0.18504860997200012
-0.3926052451133728,0.8058577179908752,0.3419801890850067
0.24208751320838928,0.28493961691856384,-0.16791963577270508
0.35158273577690125,0.44492998719215393,-0.01330486685037613
-0.43452635407447815,0.8417437672615051,-0.049033623188734055
0.3953551650047302,-0.2694686949253082,0.0035060159862041473
0.12923569977283478,0.33004847168922424,0.27665865421295166
-0.2361374795436859,0.2953442335128784,-0.1786913126707077
0.26826316118240356,0.8417437672615051,0.4685107171535492
0.2957088053226471,-0.6351529359817505,0.40848255157470703
-0.2304922342300415,-0.17431329190731049,0.2802732586860657
0.08448545634746552,0.04316023364663124,-0.3147055208683014
-0.14180344343185425,-0.32142162322998047,0.390308141708374
-0.4791097939014435,-0.4728530943393707,-0.08322568237781525
0.275878369808197,0.6742975115776062,-0.3720438480377197
0.3249565362930298,0.6330004930496216,-0.28964999318122864
0.17616085708141327,-0.5670448541641235,-0.49102655053138733
-0.2027345448732376,0.7378833293914795,-0.4392395317554474
-0.4450410008430481,-0.40590494871139526,0.009317404590547085
-0.20630455017089844,0.8417437672615051,0.4941789507865906
0.15450558066368103,0.07378815859556198,-0.2720228433609009
0.3587701618671417,0.3723963499069214,-0.012933543883264065
-0.055095624178647995,0.8417437672615051,0.433900386095047
0.3390677571296692,-0.7683132290840149,-0.21463802456855774
-0.362308531999588,-0.6067692637443542,0.035720281302928925
-0.19871021807193756,0.2349822223186493,-0.20891690254211426
0.24043813347816467,-0.1043604239821434,-0.24482378363609314
-0.2728581428527832,-0.20799317955970764,-0.2511073350906372
0.169854536652565,0.8417437672615051,0.4905482232570648
-0.2620522975921631,-0.4521007537841797,-0.3923342823982239
-0.03485164791345596,0.8417437672615051,-0.5317639112472534
-0.3429845869541168,0.442971408367157,-0.06164475157856941
-0.25887781381607056,-0.3462058901786804,0.3345385491847992
0.17110367119312286,0.7028396129608154,-0.43143272399902344
0.372934490442276,-0.3263052701950073,-0.199337437748909
0.3936507999897003,-0.7834914922714233,-0.03043437749147415
0.5115835070610046,-0.5958306789398193,0.08286861330270767
-0.22269397974014282,-0.6082896590232849,0.30709385871887207
-0.1137688085436821,0.27259254455566406,-0.28947073221206665
-0.034954462200403214,0.647588849067688,-0.43540868163108826
0.4219386875629425,0.8417437672615051,0.07529154419898987
-0.5183865427970886,-0.6062466502189636,0.10684222728013992
-0.012683624401688576,0.5533269047737122,-0.41457194089889526
-0.5041102766990662,0.8417437672615051,0.1295645385980606
-0.39885276556015015,-0.5958306789398193,-0.0668313205242157
0.48100224137306213,0.8417437672615051,-0.03716304898262024
-0.19390910863876343,0.11467663943767548,-0.26241016387939453
0.2130342274904251,-0.1742250621318817,0.26186832785606384
0.3953182101249695,0.6999619603157043,-0.24379754066467285
0.4517830014228821,0.6742225885391235,-0.004891572054475546
-0.1772209256887436,0.17297840118408203,-0.22283749282360077
0.1304924190044403,0.38204315304756165,-0.3185676634311676
0.2826371192932129,-0.7497186660766602,-0.29496800899505615
-0.3597002625465393,-0.7922220826148987,0.06841300427913666
-0.3494739532470703,-0.6910638809204102,-0.0923544317483902
-0.07107038050889969,0.8417437672615051,-0.4868893325328827
0.2616390883922577,0.2730392813682556,0.14159102737903595
-0.06231531500816345,0.00030027367756702006,-0.31438305974006653
-0.3840055465698242,0.5227788090705872,0.04835711419582367
-0.42639800906181335,0.8417437672615051,0.16799527406692505
-0.3074902594089508,-0.6826557517051697,-0.1864336133003235
-0.18817375600337982,0.7227354645729065,0.4373784065246582
-0.032264336943626404,-0.0006720895180478692,0.3360997438430786
0.11825346201658249,-0.38193637132644653,-0.4113139510154724
-0.14343194663524628,0.3008197247982025,0.27805861830711365
0.1481565684080124,-0.7311961650848389,-0.3941686153411865
-0.002009548246860504,0.4874846041202545,-0.3821079730987549
0.3391123414039612,-0.1699219048023224,0.004655419383198023
-0.17530976235866547,-0.6898052096366882,-0.41182705760002136
0.2282257378101349,-0.7946444749832153,0.30674201250076294
0.1818203330039978,-0.15168489515781403,-0.27590012550354004
0.13958342373371124,-0.12245232611894608,-0.2951567769050598
0.09831109642982483,-0.17852351069450378,0.3370548188686371
-0.23001989722251892,-0.3499267101287842,-0.34836357831954956
-0.15305599570274353,-0.17198291420936584,0.3243264853954315
-0.11449438333511353,0.3905176818370819,-0.34119415283203125
0.24418456852436066,0.5333873629570007,0.29973283410072327
-0.2548165023326874,0.07435467839241028,0.11535656452178955
0.20121827721595764,-0.7415732145309448,0.38326579332351685
-0.26883378624916077,-0.6251049637794495,-0.4377371668815613
0.3550332188606262,0.6372420787811279,-0.24297714233398438
-0.06561292707920074,-0.7217769622802734,-0.41842836141586304
0.27376899123191833,-0.18932269513607025,0.2075338065624237
-0.3508634567260742,-0.2256336212158203,0.12809821963310242
0.057211294770240784,-0.7946444749832153,0.3852120339870453
-0.48871392011642456,-0.5923147201538086,-0.22160352766513824
0.3459421992301941,-0.7445921897888184,0.25755664706230164
-0.13232071697711945,0.5186492204666138,-0.36523008346557617
-0.38583797216415405,0.8417437672615051,0.022501947358250618
-0.29410555958747864,0.26519548892974854,0.0106807891279459
0.4318245053291321,-0.3830839991569519,-0.022241275757551193
0.2738533914089203,0.026046184822916985,-0.1028323844075203
